ply
format ascii 1.0
element vertex 1539
property float32 x
property float32 y
property float32 z
property float32 I
end_header
4.2063 0.7076 -0.7027 0.9829
4.2959 0.8118 -0.7202 0.9824
6.2526 1.5768 -1.0623 0.9742
6.2406 1.7078 -1.0659 0.9741
6.1982 2.1049 -1.0784 0.9738
6.1820 2.2389 -1.0832 0.9737
6.1647 2.3737 -1.0883 0.9736
6.1463 2.5096 -1.0937 0.9734
6.1061 2.7843 -1.1056 0.9732
6.0842 2.9234 -1.1120 0.9730
6.0612 3.0636 -1.1188 0.9728
6.0113 3.3481 -1.1335 0.9725
5.9844 3.4925 -1.1415 0.9723
5.9265 3.7857 -1.1585 0.9719
5.8955 3.9350 -1.1677 0.9717
5.8291 4.2386 -1.1873 0.9712
5.7935 4.3934 -1.1978 0.9710
5.7563 4.5502 -1.2088 0.9707
5.2477 5.2903 -1.2276 0.9702
5.0314 5.2802 -1.2015 0.9709
4.8242 5.2708 -1.1771 0.9714
4.6250 5.2616 -1.1541 0.9720
4.2487 5.2441 -1.1119 0.9730
3.8984 5.2278 -1.0743 0.9739
3.7318 5.2200 -1.0571 0.9743
3.5704 5.2126 -1.0408 0.9747
2.9699 5.1845 -0.9843 0.9761
2.8295 5.1779 -0.9721 0.9764
2.2998 5.1532 -0.9296 0.9774
1.6944 5.1246 -0.8892 0.9784
1.5792 5.1193 -0.8826 0.9785
1.3538 5.1086 -0.8706 0.9788
0.9190 5.0879 -0.8517 0.9793
0.8130 5.0829 -0.8480 0.9793
0.7079 5.0779 -0.8446 0.9794
0.6036 5.0730 -0.8416 0.9795
0.3970 5.0631 -0.8367 0.9796
0.0908 5.0485 -0.8318 0.9797
-0.1118 5.0388 -0.8303 0.9798
-0.5166 5.0193 -0.8312 0.9798
-0.6181 5.0144 -0.8323 0.9797
-0.7199 5.0095 -0.8337 0.9797
-0.8222 5.0046 -0.8355 0.9796
-1.0281 4.9946 -0.8401 0.9795
-1.2366 4.9846 -0.8460 0.9794
-1.3421 4.9794 -0.8496 0.9793
-3.4178 10.1931 -1.7711 0.9574
-4.4265 10.3573 -1.8556 0.9554
-4.9676 10.4416 -1.9049 0.9542
-5.8463 10.5924 -1.9932 0.9521
-6.1603 10.6497 -2.0268 0.9513
-6.4846 10.7082 -2.0623 0.9505
5.0786 4.3161 -1.4088 0.9731
5.0357 4.4570 -1.4215 0.9729
4.9910 4.5995 -1.4347 0.9726
4.9445 4.7438 -1.4484 0.9724
4.8960 4.8899 -1.4627 0.9721
4.8457 5.0380 -1.4776 0.9718
4.2871 5.2414 -1.4313 0.9727
4.1077 5.2332 -1.4063 0.9732
3.7668 5.2175 -1.3603 0.9740
3.6044 5.2100 -1.3391 0.9744
2.8595 5.1755 -1.2499 0.9761
2.5875 5.1628 -1.2207 0.9767
2.0779 5.1390 -1.1717 0.9776
1.9566 5.1334 -1.1612 0.9778
1.7201 5.1222 -1.1422 0.9782
1.1584 5.0959 -1.1046 0.9789
1.0502 5.0908 -1.0987 0.9790
0.8369 5.0807 -1.0884 0.9792
0.6273 5.0707 -1.0800 0.9793
0.5236 5.0658 -1.0765 0.9794
0.3180 5.0560 -1.0708 0.9795
0.2159 5.0511 -1.0687 0.9795
0.1142 5.0463 -1.0670 0.9796
-0.0884 5.0365 -1.0648 0.9796
-0.1895 5.0318 -1.0644 0.9796
-0.5942 5.0123 -1.0669 0.9796
-0.9004 4.9974 -1.0734 0.9795
-1.5298 4.9669 -1.0986 0.9790
-1.7475 4.9562 -1.1109 0.9787
-1.8581 4.9508 -1.1178 0.9786
-2.6721 5.1378 -1.2241 0.9766
-5.8069 10.1475 -2.4714 0.9533
-6.4210 10.2430 -2.5554 0.9518
-6.7434 10.2920 -2.6009 0.9509
-8.4303 10.4148 -2.8323 0.9467
-10.0347 10.5403 -3.0762 0.9422
-10.4890 10.5834 -3.1497 0.9409
-10.9612 10.6243 -3.2268 0.9395
-11.9400 10.6771 -3.3858 0.9366
-12.4650 10.7037 -3.4730 0.9350
-14.8725 10.8248 -3.8883 0.9276
-15.5966 10.8793 -4.0196 0.9252
-16.3700 10.9367 -4.1615 0.9227
-17.1980 10.9968 -4.3150 0.9199
-19.8881 11.0889 -4.8133 0.9111
-20.8570 11.0859 -4.9928 0.9079
-21.8980 11.0809 -5.1877 0.9045
-23.1749 11.1482 -5.4361 0.9002
-31.1188 12.7225 -7.1064 0.8716
-85.3025 -46.1381 -20.4998 0.6727
-73.4213 -45.6314 -18.2729 0.7023
-61.2495 -39.7944 -15.4395 0.7418
-60.6717 -41.1755 -15.4993 0.7410
-59.0394 -43.6312 -15.5178 0.7407
-52.3437 -40.3332 -13.9681 0.7633
-50.9006 -40.8767 -13.7994 0.7658
-50.0273 -41.8559 -13.7878 0.7659
-48.0509 -41.8717 -13.4723 0.7706
-48.4962 -44.0044 -13.8422 0.7651
-46.6585 -44.0780 -13.5677 0.7692
-23.7307 -36.7989 -9.2557 0.8361
-17.1579 -33.5847 -7.9719 0.8571
-15.4186 -31.7382 -7.4586 0.8657
-6.6930 -16.1921 -3.7035 0.9309
-6.3078 -16.1731 -3.6695 0.9315
-5.1915 -16.1174 -3.5793 0.9331
-3.7781 -16.0454 -3.4844 0.9348
-3.4357 -16.0277 -3.4649 0.9352
-3.0946 -15.9979 -3.4443 0.9356
-2.4204 -15.9177 -3.4034 0.9363
-2.0888 -15.8776 -3.3851 0.9366
-0.4361 -14.3585 -3.0365 0.9430
-0.1434 -13.9556 -2.9501 0.9445
0.1332 -13.5696 -2.8685 0.9460
0.3948 -13.1989 -2.7912 0.9474
0.6425 -12.8429 -2.7181 0.9488
1.1004 -12.1700 -2.5830 0.9513
1.7048 -11.2471 -2.4046 0.9546
2.0610 -10.6814 -2.2995 0.9565
2.3849 -10.1496 -2.2039 0.9583
2.6803 -9.6483 -2.1167 0.9599
2.8183 -9.4079 -2.0760 0.9606
3.0766 -8.9460 -1.9997 0.9621
3.1975 -8.7239 -1.9640 0.9627
3.3134 -8.5071 -1.9298 0.9634
3.4245 -8.2955 -1.8970 0.9640
3.7310 -7.6891 -1.8066 0.9657
3.8250 -7.4957 -1.7788 0.9662
3.9153 -7.3062 -1.7522 0.9667
4.0852 -6.9386 -1.7020 0.9676
4.2420 -6.5848 -1.6557 0.9685
4.5206 -5.9139 -1.5735 0.9700
4.6443 -5.5948 -1.5370 0.9707
4.7586 -5.2852 -1.5033 0.9713
4.8124 -5.1337 -1.4874 0.9716
4.8641 -4.9843 -1.4721 0.9719
4.9137 -4.8369 -1.4575 0.9722
5.0514 -4.4059 -1.4169 0.9730
5.1342 -4.1270 -1.3924 0.9734
5.2103 -3.8542 -1.3700 0.9739
5.2802 -3.5870 -1.3493 0.9742
5.3442 -3.3249 -1.3304 0.9746
5.3741 -3.1955 -1.3216 0.9748
5.4297 -2.9400 -1.3052 0.9751
5.4556 -2.8138 -1.2976 0.9752
5.4802 -2.6886 -1.2903 0.9754
5.5035 -2.5641 -1.2834 0.9755
5.5466 -2.3178 -1.2707 0.9757
5.5663 -2.1958 -1.2649 0.9758
5.5850 -2.0745 -1.2594 0.9759
5.6188 -1.8339 -1.2494 0.9761
5.6341 -1.7143 -1.2449 0.9762
5.6615 -1.4771 -1.2368 0.9764
3.9875 -0.6221 -0.8531 0.9836
3.9698 -0.5379 -0.8468 0.9838
3.9616 -0.4559 -0.8429 0.9838
3.9359 -0.1348 -0.8325 0.9840
3.9315 0.0234 -0.8310 0.9841
3.9346 0.1025 -0.8320 0.9840
3.9379 0.1818 -0.8333 0.9840
3.9412 0.2614 -0.8349 0.9840
3.9582 0.4227 -0.8415 0.9839
3.9664 0.5044 -0.8452 0.9838
4.0052 0.6738 -0.8585 0.9835
4.0583 0.7668 -0.8730 0.9833
5.6665 1.4289 -1.2353 0.9764
5.6400 1.6659 -1.2431 0.9762
5.6251 1.7851 -1.2475 0.9762
5.5922 2.0253 -1.2572 0.9760
5.5741 2.1464 -1.2626 0.9759
5.4898 2.6378 -1.2875 0.9754
5.3858 3.1431 -1.3182 0.9748
5.3565 3.2721 -1.3268 0.9747
5.3258 3.4021 -1.3359 0.9745
5.2601 3.6656 -1.3553 0.9741
5.2251 3.7994 -1.3656 0.9739
5.1502 4.0711 -1.3877 0.9735
5.1104 4.2090 -1.3994 0.9733
5.0255 4.4898 -1.4245 0.9728
4.8846 4.9241 -1.4661 0.9720
4.8336 5.0726 -1.4811 0.9718
4.6208 5.2568 -1.4794 0.9718
4.4294 5.2480 -1.4516 0.9723
3.8951 5.2234 -1.3773 0.9737
3.7287 5.2157 -1.3553 0.9741
3.4111 5.2010 -1.3147 0.9749
3.2592 5.1940 -1.2962 0.9752
3.1114 5.1871 -1.2786 0.9756
2.9675 5.1805 -1.2620 0.9759
2.8273 5.1739 -1.2463 0.9762
2.6905 5.1676 -1.2315 0.9765
2.2980 5.1493 -1.1919 0.9772
2.0496 5.1377 -1.1692 0.9776
1.9288 5.1321 -1.1589 0.9778
1.8100 5.1264 -1.1492 0.9780
1.6931 5.1210 -1.1401 0.9782
1.4647 5.1103 -1.1237 0.9785
1.3529 5.1050 -1.1163 0.9786
1.2423 5.0998 -1.1095 0.9788
1.1332 5.0947 -1.1032 0.9789
0.9184 5.0845 -1.0922 0.9791
0.8125 5.0795 -1.0873 0.9792
0.7074 5.0745 -1.0830 0.9793
0.6032 5.0696 -1.0792 0.9793
0.4997 5.0647 -1.0758 0.9794
0.3967 5.0598 -1.0728 0.9795
0.2943 5.0549 -1.0703 0.9795
0.1923 5.0500 -1.0682 0.9796
-0.0106 5.0403 -1.0654 0.9796
-0.2129 5.0306 -1.0643 0.9796
-0.4150 5.0209 -1.0649 0.9796
-0.5162 5.0160 -1.0659 0.9796
-1.0274 4.9913 -1.0772 0.9794
-1.2358 4.9812 -1.0848 0.9792
-1.4475 4.9709 -1.0944 0.9791
-1.5548 4.9656 -1.0999 0.9790
-1.6633 4.9604 -1.1059 0.9788
-1.7730 4.9550 -1.1124 0.9787
-1.8840 4.9496 -1.1195 0.9786
-1.9965 4.9441 -1.1271 0.9784
-2.1106 4.9385 -1.1352 0.9783
-2.2264 4.9328 -1.1440 0.9781
-2.4637 4.9211 -1.1633 0.9778
-2.7404 5.2096 -1.2443 0.9762
-5.5809 10.1115 -2.4413 0.9539
-5.8761 10.1584 -2.4807 0.9532
-6.1805 10.2060 -2.5221 0.9524
4.5796 3.8920 -1.5561 0.9755
4.4464 4.2660 -1.5954 0.9749
4.3985 4.3930 -1.6096 0.9746
4.1297 5.0490 -1.6889 0.9734
4.0697 5.1848 -1.7066 0.9731
3.9310 5.2207 -1.6921 0.9734
3.7636 5.2130 -1.6647 0.9738
2.9981 5.1779 -1.5492 0.9756
2.8573 5.1714 -1.5298 0.9759
2.7198 5.1650 -1.5114 0.9762
2.5855 5.1589 -1.4941 0.9764
1.9551 5.1296 -1.4214 0.9776
1.7189 5.1186 -1.3980 0.9779
1.6035 5.1132 -1.3875 0.9781
1.1576 5.0923 -1.3521 0.9787
1.0494 5.0872 -1.3449 0.9788
0.8363 5.0772 -1.3323 0.9790
0.7312 5.0722 -1.3269 0.9790
0.6269 5.0673 -1.3220 0.9791
0.5232 5.0623 -1.3177 0.9792
0.4202 5.0574 -1.3140 0.9792
0.3178 5.0526 -1.3108 0.9793
0.2158 5.0477 -1.3081 0.9793
0.0128 5.0380 -1.3044 0.9794
-0.0883 5.0332 -1.3034 0.9794
-0.1893 5.0283 -1.3029 0.9794
-0.3913 5.0187 -1.3034 0.9794
-0.6954 5.0040 -1.3081 0.9793
-0.8998 4.9941 -1.3139 0.9793
-1.0027 4.9891 -1.3176 0.9792
-1.1063 4.9840 -1.3219 0.9791
-1.2106 4.9790 -1.3267 0.9791
-1.3158 4.9739 -1.3321 0.9790
-1.4218 4.9687 -1.3381 0.9789
-1.6369 4.9582 -1.3519 0.9787
-2.0825 4.9362 -1.3872 0.9781
-2.1979 4.9305 -1.3977 0.9779
-2.3149 4.9248 -1.4090 0.9778
-2.6785 4.9068 -1.4474 0.9772
-2.8043 4.9005 -1.4619 0.9769
-2.9327 4.8942 -1.4773 0.9767
-3.0639 4.8876 -1.4936 0.9764
-3.4761 4.8671 -1.5486 0.9756
-3.6206 4.8598 -1.5691 0.9753
-4.0891 4.8493 -1.6424 0.9741
-4.4790 5.1000 -1.7574 0.9723
-9.1072 9.9593 -3.4942 0.9458
-9.5084 9.9875 -3.5704 0.9446
-10.3627 10.0441 -3.7366 0.9421
-10.8141 10.0684 -3.8257 0.9408
-11.2721 10.0797 -3.9153 0.9394
-12.7777 10.1095 -4.2186 0.9349
-13.3365 10.1227 -4.3351 0.9332
-14.5471 10.1473 -4.5923 0.9293
-15.2273 10.1732 -4.7416 0.9271
-15.9565 10.2029 -4.9038 0.9247
-17.5359 10.2446 -5.2584 0.9195
-20.1452 10.1940 -5.8458 0.9109
-22.2681 10.1662 -6.3381 0.9038
-23.7337 10.2643 -6.6952 0.8987
-25.4650 10.4110 -7.1231 0.8925
-27.7842 10.7129 -7.7101 0.8842
-30.5622 11.0842 -8.4175 0.8743
-33.3960 11.3582 -9.1333 0.8644
-35.4257 11.2599 -9.6245 0.8576
-64.7889 -12.7612 -17.0972 0.7612
-86.6249 -40.3107 -24.7383 0.6738
-85.3052 -41.8014 -24.5963 0.6754
-85.9204 -44.2649 -25.0250 0.6708
-68.7910 -50.8377 -22.1472 0.7023
-65.9481 -50.8161 -21.5562 0.7089
-44.2609 -40.1614 -15.4744 0.7812
-38.8245 -36.6772 -13.8286 0.8020
-38.4799 -39.3947 -14.2584 0.7965
-28.9305 -33.4290 -11.4466 0.8330
-24.2078 -30.3550 -10.0527 0.8518
-11.4956 -16.3451 -5.1739 0.9207
-10.9969 -16.3232 -5.0960 0.9219
-10.5127 -16.3018 -5.0224 0.9230
-8.7020 -16.2203 -4.7659 0.9268
-8.2768 -16.2008 -4.7104 0.9276
-7.8612 -16.1816 -4.6579 0.9284
-6.6584 -16.1083 -4.5130 0.9305
-5.8848 -16.0326 -4.4219 0.9319
-5.5089 -15.9948 -4.3801 0.9325
-4.3363 -15.5814 -4.1876 0.9354
-3.4843 -14.7977 -3.9362 0.9391
-3.0929 -14.4284 -3.8206 0.9409
-2.0373 -13.3989 -3.5091 0.9455
-1.7207 -13.0793 -3.4156 0.9470
-1.4197 -12.7702 -3.3268 0.9483
-1.1332 -12.4711 -3.2422 0.9496
-0.6009 -11.9004 -3.0851 0.9520
0.1090 -11.1057 -2.8756 0.9551
0.3247 -10.8556 -2.8119 0.9561
2.1730 -8.4793 -2.2664 0.9645
2.5487 -7.9254 -2.1555 0.9662
2.6645 -7.7478 -2.1213 0.9667
2.7759 -7.5735 -2.0885 0.9672
2.8831 -7.4023 -2.0568 0.9677
2.9863 -7.2341 -2.0264 0.9682
3.2736 -6.7464 -1.9416 0.9695
3.3624 -6.5891 -1.9153 0.9699
3.4481 -6.4342 -1.8901 0.9703
3.5305 -6.2818 -1.8657 0.9707
3.6100 -6.1314 -1.8423 0.9710
3.6866 -5.9833 -1.8197 0.9714
3.9664 -5.4109 -1.7371 0.9727
4.0302 -5.2724 -1.7183 0.9730
4.1509 -5.0004 -1.6826 0.9735
4.2629 -4.7347 -1.6496 0.9740
4.4160 -4.3470 -1.6044 0.9747
4.4633 -4.2203 -1.5904 0.9749
4.5087 -4.0950 -1.5770 0.9751
4.5946 -3.8477 -1.5517 0.9755
4.6350 -3.7257 -1.5397 0.9757
4.6739 -3.6049 -1.5283 0.9759
4.7112 -3.4850 -1.5173 0.9761
4.7812 -3.2480 -1.4966 0.9764
4.9319 -2.6705 -1.4521 0.9771
4.9580 -2.5572 -1.4444 0.9772
5.0703 -2.0001 -1.4113 0.9777
5.0892 -1.8904 -1.4057 0.9778
5.1071 -1.7811 -1.4004 0.9779
5.1237 -1.6722 -1.3955 0.9780
5.1393 -1.5638 -1.3909 0.9780
5.1538 -1.4558 -1.3866 0.9781
5.1672 -1.3481 -1.3827 0.9782
5.1796 -1.2407 -1.3790 0.9782
4.0826 -0.8061 -1.0775 0.9830
4.0240 -0.7109 -1.0581 0.9833
3.9926 -0.6229 -1.0463 0.9834
3.9675 -0.5376 -1.0367 0.9836
3.9517 -0.4548 -1.0299 0.9837
3.9383 -0.3733 -1.0243 0.9838
3.9248 -0.2925 -1.0190 0.9839
3.9135 -0.1340 -1.0139 0.9840
3.9075 0.0232 -1.0117 0.9840
3.9119 0.1019 -1.0132 0.9840
3.9329 0.3403 -1.0221 0.9838
3.9462 0.4214 -1.0276 0.9837
3.9598 0.5036 -1.0336 0.9836
4.0533 0.7659 -1.0680 0.9831
5.1723 1.3043 -1.3812 0.9782
5.1594 1.4118 -1.3850 0.9781
5.1139 1.7367 -1.3984 0.9779
5.0966 1.8458 -1.4035 0.9779
5.0586 2.0655 -1.4147 0.9777
5.0378 2.1760 -1.4209 0.9776
5.0158 2.2871 -1.4274 0.9775
4.9683 2.5113 -1.4414 0.9773
4.8271 3.0835 -1.4831 0.9766
4.7611 3.3179 -1.5025 0.9763
4.6113 3.7979 -1.5468 0.9756
4.5267 4.0443 -1.5717 0.9752
4.3871 4.4226 -1.6129 0.9746
4.1744 4.9457 -1.6757 0.9736
4.1160 5.0804 -1.6929 0.9733
4.0555 5.2164 -1.7108 0.9731
3.8917 5.2189 -1.6856 0.9735
3.4082 5.1968 -1.6091 0.9746
3.1089 5.1830 -1.5649 0.9753
2.5549 5.1575 -1.4902 0.9765
2.0481 5.1339 -1.4311 0.9774
1.9274 5.1284 -1.4185 0.9776
1.8087 5.1228 -1.4066 0.9778
1.6919 5.1173 -1.3955 0.9780
1.5770 5.1119 -1.3851 0.9781
1.2415 5.0963 -1.3581 0.9786
1.1325 5.0911 -1.3504 0.9787
1.0246 5.0861 -1.3433 0.9788
0.8119 5.0760 -1.3310 0.9790
0.6028 5.0661 -1.3210 0.9791
0.4993 5.0612 -1.3168 0.9792
0.2941 5.0515 -1.3101 0.9793
0.0907 5.0418 -1.3056 0.9794
-0.1117 5.0321 -1.3032 0.9794
-0.3137 5.0224 -1.3029 0.9794
-0.4147 5.0175 -1.3035 0.9794
-0.6173 5.0078 -1.3064 0.9794
-0.7190 5.0029 -1.3086 0.9793
-1.0266 4.9880 -1.3185 0.9792
-1.1304 4.9829 -1.3229 0.9791
-1.8827 4.9461 -1.3703 0.9784
-2.2248 4.9292 -1.4002 0.9779
-2.9629 4.8926 -1.4810 0.9766
4.1192 3.6458 -1.6920 0.9772
4.0758 3.7561 -1.7048 0.9771
3.9840 3.9791 -1.7319 0.9767
3.7233 4.5521 -1.8088 0.9757
3.6654 4.6697 -1.8259 0.9755
3.6054 4.7883 -1.8436 0.9752
3.5434 4.9081 -1.8619 0.9750
3.4792 5.0289 -1.8809 0.9747
3.4127 5.1510 -1.9005 0.9745
2.8550 5.1672 -1.8158 0.9756
2.3240 5.1429 -1.7358 0.9767
2.1982 5.1371 -1.7186 0.9769
1.9537 5.1258 -1.6872 0.9773
1.7176 5.1149 -1.6596 0.9777
0.7307 5.0687 -1.5751 0.9788
0.3175 5.0491 -1.5561 0.9791
0.2156 5.0443 -1.5529 0.9791
0.0128 5.0346 -1.5485 0.9792
-0.0882 5.0297 -1.5473 0.9792
-0.1892 5.0249 -1.5466 0.9792
-0.2901 5.0200 -1.5466 0.9792
-0.3910 5.0151 -1.5472 0.9792
-0.4921 5.0104 -1.5485 0.9792
-0.5933 5.0054 -1.5503 0.9791
-0.8991 4.9906 -1.5597 0.9790
-1.2098 4.9755 -1.5749 0.9788
-1.3148 4.9704 -1.5814 0.9787
-1.4208 4.9651 -1.5885 0.9786
-1.6357 4.9546 -1.6048 0.9784
-1.8555 4.9438 -1.6242 0.9781
-1.9675 4.9382 -1.6350 0.9780
-2.0810 4.9327 -1.6467 0.9778
-2.3132 4.9211 -1.6725 0.9775
-2.6765 4.9031 -1.7181 0.9769
-2.8022 4.8968 -1.7353 0.9767
-3.3327 4.8702 -1.8151 0.9756
-3.4733 4.8631 -1.8381 0.9753
-3.6176 4.8558 -1.8625 0.9750
-3.7655 4.8480 -1.8881 0.9746
-4.2367 4.8241 -1.9748 0.9735
-4.5763 4.8069 -2.0414 0.9726
-4.7550 4.7978 -2.0776 0.9721
-4.9402 4.7884 -2.1161 0.9716
-5.5406 4.7577 -2.2462 0.9699
-5.7578 4.7465 -2.2951 0.9693
-5.9846 4.7350 -2.3472 0.9686
-6.2220 4.7228 -2.4026 0.9678
-6.4712 4.7100 -2.4618 0.9671
-6.7329 4.6965 -2.5249 0.9662
-7.9331 4.6346 -2.8259 0.9623
-8.2800 4.6167 -2.9159 0.9611
-9.5137 4.5765 -3.2472 0.9568
-10.9908 4.7533 -3.6831 0.9511
-24.2274 9.3415 -7.9866 0.8970
-28.4762 9.6850 -9.2514 0.8817
-30.8466 9.8044 -9.9555 0.8733
-34.7858 9.5363 -11.0941 0.8599
-36.9996 9.3483 -11.7379 0.8524
-87.9408 18.4959 -27.6405 0.6865
-29.3589 3.7472 -9.1034 0.8835
-83.9346 -27.3511 -27.1526 0.6911
-81.4779 -28.3732 -26.5369 0.6969
-70.8755 -31.2656 -23.8266 0.7231
-65.9343 -30.6824 -22.3682 0.7376
-32.8807 -16.9397 -11.3766 0.8566
-31.3130 -16.9365 -10.9497 0.8616
-29.8870 -16.9498 -10.5680 0.8661
-27.1176 -16.8535 -9.8204 0.8749
-21.6181 -16.6578 -8.3943 0.8921
-20.7010 -16.6244 -8.1662 0.8948
-19.8317 -16.5924 -7.9532 0.8974
-18.2201 -16.5325 -7.5673 0.9022
-16.7543 -16.4771 -7.2278 0.9063
-16.0688 -16.4508 -7.0732 0.9082
-15.4116 -16.4255 -6.9278 0.9100
-13.5787 -16.3423 -6.5352 0.9149
-13.0033 -16.3054 -6.4147 0.9164
-11.9110 -16.2327 -6.1927 0.9192
-9.3618 -15.8836 -5.6709 0.9257
-8.7555 -15.5615 -5.4920 0.9280
-6.1495 -14.0696 -4.7228 0.9378
-5.2741 -13.5227 -4.4644 0.9411
-3.0882 -12.0271 -3.8192 0.9494
-2.7777 -11.7967 -3.7276 0.9505
-2.4804 -11.5711 -3.6398 0.9517
-2.1955 -11.3502 -3.5558 0.9528
-1.9225 -11.1339 -3.4752 0.9538
-0.7147 -10.1144 -3.1187 0.9585
-0.5010 -9.9219 -3.0556 0.9593
-0.2956 -9.7330 -2.9950 0.9601
0.0919 -9.3652 -2.8806 0.9616
0.6203 -8.8368 -2.7247 0.9636
0.7836 -8.6665 -2.6765 0.9642
0.9409 -8.4989 -2.6301 0.9648
1.2387 -8.1718 -2.5422 0.9660
1.5155 -7.8546 -2.4605 0.9671
1.6467 -7.6995 -2.4217 0.9676
2.0133 -7.2473 -2.3135 0.9690
2.2371 -6.9562 -2.2475 0.9699
2.7329 -6.2607 -2.1012 0.9718
2.9087 -5.9943 -2.0493 0.9725
2.9921 -5.8633 -2.0247 0.9728
3.1506 -5.6057 -1.9779 0.9734
3.2259 -5.4790 -1.9556 0.9737
3.5660 -4.8646 -1.8552 0.9751
3.6273 -4.7454 -1.8372 0.9753
3.6865 -4.6271 -1.8197 0.9755
3.8522 -4.2785 -1.7708 0.9762
3.9532 -4.0509 -1.7410 0.9766
4.0472 -3.8270 -1.7132 0.9770
4.0917 -3.7162 -1.7001 0.9771
4.1345 -3.6062 -1.6875 0.9773
4.1758 -3.4971 -1.6753 0.9775
4.2155 -3.3886 -1.6636 0.9776
4.2904 -3.1737 -1.6415 0.9779
4.3595 -2.9616 -1.6211 0.9782
4.3920 -2.8564 -1.6115 0.9783
4.4231 -2.7519 -1.6023 0.9784
4.4814 -2.5443 -1.5851 0.9787
4.5829 -2.1352 -1.5551 0.9791
4.6053 -2.0342 -1.5485 0.9792
4.7154 -1.4348 -1.5160 0.9796
4.7299 -1.3361 -1.5117 0.9796
4.7433 -1.2375 -1.5078 0.9797
4.7557 -1.1392 -1.5041 0.9797
4.7670 -1.0411 -1.5008 0.9798
4.0818 -0.7211 -1.2749 0.9828
4.0490 -0.6318 -1.2605 0.9830
4.0187 -0.5445 -1.2474 0.9832
3.9501 -0.1352 -1.2157 0.9836
3.9424 0.0234 -1.2126 0.9836
3.9925 0.4264 -1.2350 0.9833
4.0676 0.6843 -1.2687 0.9829
4.2252 0.8866 -1.3279 0.9821
4.7485 1.1975 -1.5063 0.9797
4.7355 1.2959 -1.5101 0.9797
4.7214 1.3946 -1.5142 0.9796
4.6901 1.5927 -1.5235 0.9795
4.6728 1.6923 -1.5286 0.9794
4.6543 1.7921 -1.5341 0.9793
4.6347 1.8925 -1.5398 0.9793
4.5922 2.0939 -1.5524 0.9791
4.5449 2.2973 -1.5663 0.9789
4.5194 2.3995 -1.5739 0.9788
4.4354 2.7094 -1.5987 0.9785
4.4048 2.8137 -1.6077 0.9784
4.3729 2.9186 -1.6171 0.9782
4.3396 3.0242 -1.6269 0.9781
4.2688 3.2371 -1.6478 0.9778
4.1921 3.4528 -1.6705 0.9775
4.1515 3.5617 -1.6825 0.9774
3.9729 4.0051 -1.7352 0.9767
3.8208 4.3467 -1.7801 0.9761
3.7664 4.4625 -1.7961 0.9759
3.7101 4.5793 -1.8128 0.9756
3.6517 4.6971 -1.8300 0.9754
3.5912 4.8160 -1.8478 0.9752
3.5287 4.9360 -1.8663 0.9749
3.4640 5.0571 -1.8854 0.9747
3.2538 5.1854 -1.8829 0.9747
2.9629 5.1721 -1.8334 0.9754
2.6863 5.1595 -1.7892 0.9760
2.5528 5.1534 -1.7689 0.9762
2.4223 5.1474 -1.7498 0.9765
2.0465 5.1300 -1.6988 0.9772
1.6907 5.1136 -1.6566 0.9777
1.5758 5.1082 -1.6443 0.9779
1.3509 5.0977 -1.6221 0.9782
1.2406 5.0926 -1.6122 0.9783
1.0238 5.0825 -1.5947 0.9785
0.8113 5.0725 -1.5800 0.9787
0.7065 5.0675 -1.5737 0.9788
0.4989 5.0577 -1.5632 0.9790
0.1921 5.0432 -1.5523 0.9791
0.0906 5.0383 -1.5499 0.9791
-0.1117 5.0286 -1.5471 0.9792
-0.3135 5.0189 -1.5467 0.9792
-0.4145 5.0140 -1.5475 0.9792
-0.6168 5.0043 -1.5509 0.9791
-1.0260 4.9844 -1.5653 0.9789
-1.1297 4.9794 -1.5705 0.9789
-1.3393 4.9692 -1.5829 0.9787
-1.4454 4.9639 -1.5902 0.9786
-1.8813 4.9425 -1.6266 0.9781
-1.9937 4.9369 -1.6376 0.9780
-2.1076 4.9314 -1.6495 0.9778
-2.4600 4.9139 -1.6902 0.9773
-2.5815 4.9078 -1.7056 0.9771
-2.8317 4.8953 -1.7394 0.9766
-2.9606 4.8889 -1.7579 0.9764
3.6321 3.6276 -1.8357 0.9784
3.5368 3.8283 -1.8639 0.9781
3.4867 3.9296 -1.8787 0.9779
3.4348 4.0314 -1.8940 0.9778
3.2684 4.3407 -1.9431 0.9772
3.2091 4.4450 -1.9606 0.9770
3.0847 4.6560 -1.9973 0.9766
3.0194 4.7625 -2.0166 0.9763
2.9520 4.8698 -2.0365 0.9761
2.8105 5.0867 -2.0783 0.9756
2.5814 5.1506 -2.0603 0.9758
2.4504 5.1446 -2.0378 0.9761
2.0732 5.1274 -1.9778 0.9768
1.7163 5.1110 -1.9280 0.9774
1.6011 5.1056 -1.9135 0.9775
1.2652 5.0900 -1.8756 0.9780
1.1560 5.0850 -1.8648 0.9781
1.0479 5.0800 -1.8549 0.9782
0.9410 5.0749 -1.8458 0.9783
0.7301 5.0650 -1.8300 0.9785
0.6259 5.0601 -1.8233 0.9786
0.5225 5.0552 -1.8174 0.9786
0.4196 5.0504 -1.8123 0.9787
0.1140 5.0359 -1.8013 0.9788
-0.0882 5.0262 -1.7977 0.9789
-0.1890 5.0214 -1.7969 0.9789
-0.3907 5.0117 -1.7976 0.9789
-0.5930 5.0019 -1.8012 0.9788
-0.6944 4.9970 -1.8041 0.9788
-0.8985 4.9871 -1.8121 0.9787
-1.0013 4.9820 -1.8172 0.9786
-1.1048 4.9770 -1.8231 0.9786
-1.3139 4.9668 -1.8373 0.9784
-1.4198 4.9616 -1.8455 0.9783
-1.6345 4.9510 -1.8645 0.9781
-1.9661 4.9346 -1.8995 0.9777
-2.3115 4.9174 -1.9431 0.9772
-2.4303 4.9114 -1.9596 0.9770
-2.6744 4.8992 -1.9960 0.9766
-2.8000 4.8929 -2.0160 0.9763
-3.1929 4.8730 -2.0834 0.9756
-3.3300 4.8662 -2.1086 0.9753
-3.4704 4.8589 -2.1353 0.9750
-3.6143 4.8513 -2.1634 0.9746
-3.7623 4.8438 -2.1933 0.9743
-4.2329 4.8198 -2.2939 0.9731
-4.3996 4.8112 -2.3314 0.9727
-4.7505 4.7932 -2.4133 0.9717
-4.9354 4.7837 -2.4579 0.9712
-5.1275 4.7738 -2.5053 0.9707
-5.3271 4.7636 -2.5555 0.9701
-5.5349 4.7529 -2.6089 0.9695
-5.9782 4.7299 -2.7260 0.9681
-6.2152 4.7176 -2.7904 0.9674
-7.5975 4.6457 -3.1846 0.9629
-7.9229 4.6287 -3.2814 0.9618
-8.6379 4.5912 -3.4982 0.9593
-9.4557 4.5486 -3.7523 0.9564
-9.9109 4.5247 -3.8961 0.9548
-10.4025 4.4988 -4.0530 0.9530
-11.5160 4.4403 -4.4137 0.9489
-12.1509 4.4068 -4.6222 0.9466
-12.6657 4.3077 -4.7841 0.9448
-12.6763 3.7504 -4.7274 0.9454
-15.4416 4.2332 -5.7257 0.9342
-16.5274 4.1758 -6.0960 0.9301
-19.1849 4.0350 -7.0108 0.9201
-25.1204 3.7204 -9.0812 0.8977
-32.9498 3.5342 -11.8507 0.8687
-45.9698 3.0696 -16.4757 0.8222
-46.4045 -1.5675 -16.6040 0.8210
-46.1721 -2.4890 -16.5355 0.8217
-44.8739 -5.1434 -16.1523 0.8254
-43.5575 -6.7748 -15.7637 0.8292
-41.9421 -8.2611 -15.2869 0.8339
-40.0884 -9.5836 -14.7398 0.8394
-39.0919 -10.1796 -14.4457 0.8423
-38.0591 -10.7314 -14.1409 0.8454
-35.9140 -11.7030 -13.5078 0.8518
-33.7075 -12.5027 -12.8565 0.8584
-32.5960 -12.8411 -12.5285 0.8617
-31.4861 -13.1405 -12.2009 0.8651
-30.3822 -13.4025 -11.8751 0.8684
-29.2884 -13.6293 -11.5522 0.8718
-28.2078 -13.8224 -11.2333 0.8751
-27.1437 -13.9841 -10.9192 0.8783
-26.0987 -14.1161 -10.6108 0.8816
-22.1451 -14.3879 -9.4439 0.8939
-19.4483 -14.3726 -8.6479 0.9024
-18.6031 -14.3345 -8.3985 0.9050
-17.7848 -14.2825 -8.1570 0.9076
-15.4891 -14.0545 -7.4794 0.9150
-14.7756 -13.9584 -7.2688 0.9173
-14.0870 -13.8539 -7.0655 0.9195
-13.4228 -13.7419 -6.8695 0.9216
-12.7824 -13.6233 -6.6805 0.9237
-10.9968 -13.2350 -6.1535 0.9295
-10.4446 -13.0969 -5.9905 0.9313
-9.9126 -12.9553 -5.8335 0.9330
-8.4311 -12.5147 -5.3962 0.9379
-7.9732 -12.3639 -5.2610 0.9394
-6.3036 -11.7497 -4.7683 0.9449
-5.2046 -11.2844 -4.4439 0.9486
-4.8644 -11.1294 -4.3435 0.9497
-3.3375 -10.3616 -3.8928 0.9548
-2.2985 -9.7613 -3.5862 0.9583
-1.8313 -9.4671 -3.4483 0.9599
-1.3955 -9.1775 -3.3196 0.9613
-1.1886 -9.0344 -3.2586 0.9620
-0.9887 -8.8924 -3.1996 0.9627
-0.6086 -8.6120 -3.0874 0.9640
0.6815 -7.5379 -2.7066 0.9684
0.8202 -7.4090 -2.6657 0.9688
0.9545 -7.2811 -2.6261 0.9693
1.0845 -7.1544 -2.5877 0.9697
1.3322 -6.9043 -2.5146 0.9706
1.4502 -6.7809 -2.4797 0.9710
1.6753 -6.5372 -2.4133 0.9717
1.7826 -6.4169 -2.3816 0.9721
1.8865 -6.2976 -2.3510 0.9725
2.0848 -6.0621 -2.2925 0.9731
2.1792 -5.9458 -2.2646 0.9735
2.2708 -5.8303 -2.2375 0.9738
2.3595 -5.7159 -2.2113 0.9741
2.5287 -5.4896 -2.1614 0.9747
2.6876 -5.2668 -2.1145 0.9752
3.1703 -4.5121 -1.9721 0.9768
3.2308 -4.4073 -1.9542 0.9771
3.4008 -4.0968 -1.9040 0.9776
3.4538 -3.9946 -1.8884 0.9778
3.5050 -3.8929 -1.8733 0.9780
3.6024 -3.6915 -1.8445 0.9783
3.7364 -3.3934 -1.8050 0.9788
3.8566 -3.1000 -1.7695 0.9792
3.9296 -2.9068 -1.7479 0.9795
4.0594 -2.5255 -1.7097 0.9799
4.1165 -2.3371 -1.6928 0.9801
4.1687 -2.1501 -1.6774 0.9803
4.1930 -2.0571 -1.6702 0.9804
4.2974 -1.5962 -1.6394 0.9807
4.3149 -1.5049 -1.6342 0.9808
4.3314 -1.4137 -1.6294 0.9808
4.3468 -1.3227 -1.6248 0.9809
4.3611 -1.2318 -1.6206 0.9809
4.3744 -1.1413 -1.6167 0.9810
4.4171 -0.7803 -1.6041 0.9811
4.4253 -0.6904 -1.6017 0.9812
4.4385 -0.5108 -1.5977 0.9812
4.0729 -0.3036 -1.4606 0.9828
4.0608 -0.2207 -1.4543 0.9829
4.0588 -0.0574 -1.4516 0.9829
4.0586 0.0242 -1.4514 0.9829
4.0603 0.1875 -1.4536 0.9829
4.0668 0.2697 -1.4575 0.9828
4.0820 0.3532 -1.4652 0.9827
4.4283 0.6538 -1.6008 0.9812
4.4205 0.7437 -1.6030 0.9811
4.4118 0.8336 -1.6056 0.9811
4.4020 0.9237 -1.6085 0.9811
4.3913 1.0140 -1.6117 0.9810
4.3218 1.4677 -1.6322 0.9808
4.2865 1.6505 -1.6426 0.9807
4.2672 1.7423 -1.6483 0.9806
4.2026 2.0193 -1.6674 0.9804
4.1787 2.1122 -1.6744 0.9803
4.1537 2.2054 -1.6818 0.9802
4.0414 2.5816 -1.7150 0.9798
3.9776 2.7720 -1.7338 0.9796
3.7535 3.3534 -1.7999 0.9788
3.6670 3.5511 -1.8255 0.9785
3.4748 3.9531 -1.8822 0.9779
3.4225 4.0550 -1.8976 0.9777
3.3685 4.1576 -1.9136 0.9775
3.3126 4.2609 -1.9301 0.9773
3.1335 4.5746 -1.9829 0.9767
2.7935 5.1121 -2.0833 0.9756
2.5508 5.1492 -2.0550 0.9759
2.4205 5.1432 -2.0328 0.9761
2.1677 5.1318 -1.9922 0.9766
1.9244 5.1205 -1.9562 0.9770
1.8060 5.1151 -1.9399 0.9772
1.6895 5.1098 -1.9246 0.9774
1.2397 5.0889 -1.8730 0.9780
1.0231 5.0787 -1.8527 0.9782
0.8107 5.0689 -1.8357 0.9784
0.7060 5.0639 -1.8284 0.9785
0.4986 5.0541 -1.8162 0.9787
0.3959 5.0492 -1.8112 0.9787
0.2937 5.0444 -1.8070 0.9788
-0.0106 5.0300 -1.7987 0.9789
-0.1116 5.0250 -1.7974 0.9789
-0.4142 5.0105 -1.7979 0.9789
-0.5152 5.0057 -1.7995 0.9788
-0.7179 4.9958 -1.8049 0.9788
-0.8199 4.9909 -1.8087 0.9787
-1.0253 4.9809 -1.8185 0.9786
-1.1288 4.9758 -1.8246 0.9786
-1.4444 4.9603 -1.8475 0.9783
-1.5515 4.9551 -1.8568 0.9782
-1.6597 4.9497 -1.8669 0.9781
-1.7692 4.9443 -1.8779 0.9779
-1.8799 4.9388 -1.8898 0.9778
-1.9922 4.9332 -1.9026 0.9777
-2.2215 4.9219 -1.9311 0.9773
-2.3388 4.9160 -1.9468 0.9771
-2.4581 4.9100 -1.9636 0.9769
-2.5796 4.9040 -1.9815 0.9767
3.2371 3.5038 -1.9524 0.9796
3.1890 3.5941 -1.9665 0.9794
3.1394 3.6846 -1.9812 0.9793
3.0352 3.8668 -2.0119 0.9790
2.8062 4.2357 -2.0795 0.9783
2.7444 4.3288 -2.0977 0.9781
2.6808 4.4223 -2.1166 0.9779
2.5474 4.6105 -2.1559 0.9775
2.4777 4.7053 -2.1765 0.9773
2.4059 4.8004 -2.1977 0.9771
2.1773 5.0882 -2.2652 0.9764
2.0715 5.1233 -2.2618 0.9764
1.9506 5.1178 -2.2416 0.9766
1.8318 5.1123 -2.2226 0.9768
1.7149 5.1070 -2.2049 0.9770
1.5999 5.1017 -2.1883 0.9772
1.3746 5.0913 -2.1584 0.9775
1.0471 5.0761 -2.1213 0.9778
0.9404 5.0711 -2.1109 0.9780
0.7296 5.0613 -2.0929 0.9781
0.6255 5.0564 -2.0852 0.9782
0.4193 5.0467 -2.0726 0.9784
0.3171 5.0418 -2.0676 0.9784
0.2153 5.0370 -2.0634 0.9784
0.0128 5.0273 -2.0576 0.9785
-0.2897 5.0129 -2.0551 0.9785
-0.4913 5.0031 -2.0575 0.9785
-0.5925 4.9982 -2.0600 0.9785
-0.7956 4.9883 -2.0674 0.9784
-1.2080 4.9682 -2.0926 0.9781
-1.3129 4.9631 -2.1011 0.9781
-1.4187 4.9579 -2.1106 0.9780
-1.5255 4.9526 -2.1209 0.9779
-1.6333 4.9473 -2.1323 0.9777
-1.7424 4.9419 -2.1446 0.9776
-1.8527 4.9364 -2.1579 0.9775
-1.9645 4.9307 -2.1723 0.9773
-2.0779 4.9251 -2.1878 0.9772
-2.1928 4.9194 -2.2043 0.9770
-2.3097 4.9136 -2.2221 0.9768
-2.5492 4.9015 -2.2611 0.9764
-2.6722 4.8952 -2.2826 0.9762
-3.6111 4.8471 -2.4738 0.9742
-3.9110 4.8317 -2.5441 0.9735
-4.0676 4.8236 -2.5824 0.9731
-4.5676 4.7979 -2.7112 0.9718
-4.7459 4.7886 -2.7593 0.9713
-5.1223 4.7690 -2.8644 0.9702
-5.5290 4.7478 -2.9827 0.9690
-5.7454 4.7364 -3.0475 0.9683
-5.9716 4.7246 -3.1165 0.9676
-6.2082 4.7122 -3.1899 0.9669
-6.4564 4.6992 -3.2682 0.9661
-6.7171 4.6855 -3.3519 0.9652
-6.9916 4.6711 -3.4413 0.9643
-7.5877 4.6396 -3.6400 0.9623
-7.9125 4.6225 -3.7505 0.9612
-8.2577 4.6042 -3.8695 0.9600
-9.0195 4.5641 -4.1371 0.9573
-9.4413 4.5417 -4.2879 0.9557
-10.3854 4.4915 -4.6310 0.9523
-11.4954 4.4324 -5.0424 0.9481
-12.1282 4.3986 -5.2801 0.9458
-14.4481 4.2746 -6.1666 0.9370
-16.4867 4.1655 -6.9596 0.9291
-17.7163 4.0995 -7.4424 0.9244
-19.1306 4.0236 -8.0010 0.9190
-24.5197 3.6314 -10.1447 0.8984
-24.7585 3.1600 -10.2152 0.8977
-25.1384 2.1866 -10.3273 0.8967
-25.2769 1.6879 -10.3682 0.8963
-25.3799 1.1833 -10.3986 0.8960
-25.4769 0.1634 -10.4273 0.8957
-25.3468 -1.3664 -10.3889 0.8961
-25.0797 -2.3653 -10.3100 0.8968
-24.8943 -2.8534 -10.2553 0.8974
-24.1452 -4.2539 -10.0342 0.8995
-23.1404 -5.5320 -9.7377 0.9023
-22.3531 -6.3029 -9.5053 0.9045
-20.0898 -7.9143 -8.8373 0.9109
-18.6075 -8.6590 -8.3998 0.9151
-18.1033 -8.8711 -8.2510 0.9166
-17.5966 -9.0655 -8.1014 0.9180
-17.0890 -9.2429 -7.9516 0.9195
-16.5815 -9.4039 -7.8018 0.9209
-16.0756 -9.5487 -7.6525 0.9224
-15.0724 -9.7926 -7.3564 0.9253
-14.0871 -9.9793 -7.0656 0.9281
-13.6031 -10.0529 -6.9227 0.9295
-11.2925 -10.2465 -6.2408 0.9362
-10.4265 -10.2540 -5.9852 0.9388
-8.8042 -10.1732 -5.5063 0.9435
-8.0488 -10.0927 -5.2834 0.9457
-7.6850 -10.0440 -5.1760 0.9468
-6.6485 -9.8687 -4.8701 0.9499
-6.3208 -9.8017 -4.7734 0.9508
-6.0020 -9.7309 -4.6792 0.9518
-5.3898 -9.5794 -4.4986 0.9536
-5.0962 -9.4991 -4.4119 0.9545
-4.5330 -9.3309 -4.2457 0.9562
-4.0009 -9.1539 -4.0886 0.9577
-3.7461 -9.0625 -4.0134 0.9585
-3.4983 -8.9695 -3.9403 0.9592
-2.7965 -8.6822 -3.7332 0.9613
-2.5759 -8.5842 -3.6680 0.9620
-2.3614 -8.4852 -3.6047 0.9626
-2.1531 -8.3854 -3.5433 0.9633
-1.9509 -8.2850 -3.4836 0.9639
-1.7543 -8.1839 -3.4256 0.9645
-1.5634 -8.0823 -3.3692 0.9650
-1.0229 -7.7754 -3.2097 0.9667
-0.8530 -7.6726 -3.1595 0.9672
-0.2205 -7.2604 -2.9729 0.9691
-0.0736 -7.1574 -2.9295 0.9695
0.6007 -6.6444 -2.7305 0.9716
0.7243 -6.5425 -2.6940 0.9720
1.1843 -6.1375 -2.5582 0.9733
1.3950 -5.9370 -2.4960 0.9740
1.4959 -5.8372 -2.4662 0.9743
1.5940 -5.7379 -2.4373 0.9746
1.6892 -5.6389 -2.4092 0.9749
1.7817 -5.5404 -2.3819 0.9752
1.9588 -5.3443 -2.3296 0.9757
2.0436 -5.2471 -2.3046 0.9760
2.1259 -5.1500 -2.2803 0.9762
2.2835 -4.9573 -2.2338 0.9767
2.4321 -4.7661 -2.1899 0.9771
2.5032 -4.6711 -2.1690 0.9774
2.5721 -4.5765 -2.1486 0.9776
2.6391 -4.4823 -2.1289 0.9778
2.7040 -4.3885 -2.1097 0.9780
2.8281 -4.2021 -2.0731 0.9783
2.8874 -4.1095 -2.0556 0.9785
2.9448 -4.0172 -2.0386 0.9787
3.1068 -3.7427 -1.9908 0.9792
3.2065 -3.5614 -1.9614 0.9795
3.3444 -3.2921 -1.9207 0.9799
3.4288 -3.1141 -1.8958 0.9802
3.4689 -3.0257 -1.8839 0.9803
3.7119 -2.4141 -1.8122 0.9810
3.7698 -2.2416 -1.7951 0.9812
3.8231 -2.0701 -1.7794 0.9814
3.8717 -1.8995 -1.7650 0.9815
3.8943 -1.8144 -1.7584 0.9816
3.9158 -1.7295 -1.7520 0.9817
3.9362 -1.6449 -1.7460 0.9817
3.9555 -1.5604 -1.7403 0.9818
4.0070 -1.3077 -1.7251 0.9819
4.0361 -1.1401 -1.7165 0.9820
4.0491 -1.0564 -1.7127 0.9821
4.0821 -0.8060 -1.7030 0.9822
4.0990 -0.6395 -1.6979 0.9822
4.1121 -0.4732 -1.6941 0.9823
4.1243 -0.2243 -1.6905 0.9823
4.1264 -0.1413 -1.6899 0.9823
4.1270 0.1075 -1.6897 0.9823
4.1086 0.5225 -1.6951 0.9823
4.0944 0.6888 -1.6993 0.9822
4.0858 0.7721 -1.7018 0.9822
4.0541 1.0223 -1.7112 0.9821
3.9976 1.3575 -1.7279 0.9819
3.9808 1.4417 -1.7328 0.9819
3.9630 1.5260 -1.7381 0.9818
3.9242 1.6950 -1.7495 0.9817
3.9032 1.7798 -1.7558 0.9816
3.8811 1.8648 -1.7623 0.9816
3.8578 1.9499 -1.7691 0.9815
3.8078 2.1208 -1.7839 0.9813
3.7811 2.2066 -1.7918 0.9813
3.7532 2.2927 -1.8000 0.9812
3.6937 2.4654 -1.8176 0.9810
3.5951 2.7263 -1.8467 0.9807
3.5597 2.8138 -1.8571 0.9806
3.4848 2.9896 -1.8792 0.9804
3.3620 3.2557 -1.9155 0.9800
3.3182 3.3451 -1.9284 0.9798
3.2729 3.4348 -1.9418 0.9797
3.2261 3.5247 -1.9556 0.9796
3.1276 3.7057 -1.9846 0.9793
3.0227 3.8881 -2.0156 0.9789
2.9109 4.0719 -2.0486 0.9786
2.7921 4.2572 -2.0837 0.9782
2.7298 4.3504 -2.1021 0.9780
2.5314 4.6325 -2.1606 0.9774
2.4612 4.7273 -2.1813 0.9772
2.3889 4.8225 -2.2027 0.9770
2.3145 4.9182 -2.2246 0.9768
2.2378 5.0142 -2.2473 0.9765
2.0433 5.1220 -2.2570 0.9764
1.9230 5.1165 -2.2371 0.9767
1.8046 5.1111 -2.2184 0.9768
1.5735 5.1005 -2.1846 0.9772
1.3489 5.0901 -2.1552 0.9775
1.2388 5.0850 -2.1420 0.9776
0.7054 5.0601 -2.0910 0.9782
0.6015 5.0552 -2.0836 0.9782
0.4982 5.0504 -2.0770 0.9783
0.1918 5.0358 -2.0626 0.9785
0.0905 5.0311 -2.0594 0.9785
-0.0106 5.0262 -2.0571 0.9785
-0.2122 5.0165 -2.0550 0.9785
-0.3131 5.0117 -2.0552 0.9785
-0.4139 5.0069 -2.0562 0.9785
-0.6160 4.9971 -2.0607 0.9785
-1.0245 4.9772 -2.0798 0.9783
-1.1280 4.9721 -2.0867 0.9782
-1.5503 4.9513 -2.1235 0.9778
-1.7679 4.9406 -2.1476 0.9776
-1.9906 4.9295 -2.1758 0.9773
-2.1044 4.9238 -2.1915 0.9771
-2.2198 4.9180 -2.2083 0.9769
-2.3370 4.9121 -2.2263 0.9768
-2.5775 4.9000 -2.2660 0.9764
-2.7011 4.8938 -2.2877 0.9761
3.2215 2.7379 -1.9570 0.9815
3.1838 2.8179 -1.9681 0.9814
3.1448 2.8981 -1.9796 0.9813
3.1045 2.9786 -1.9915 0.9812
3.0628 3.0590 -2.0038 0.9811
3.0198 3.1397 -2.0165 0.9810
2.9754 3.2206 -2.0296 0.9809
2.9295 3.3016 -2.0431 0.9807
2.8821 3.3827 -2.0571 0.9806
2.8333 3.4641 -2.0715 0.9805
2.7311 3.6271 -2.1017 0.9802
2.6776 3.7089 -2.1175 0.9800
2.2565 4.2852 -2.2418 0.9789
2.1891 4.3680 -2.2616 0.9787
2.0488 4.5340 -2.3031 0.9783
1.9757 4.6171 -2.3247 0.9781
1.9005 4.7003 -2.3468 0.9779
1.7438 4.8668 -2.3931 0.9775
1.6623 4.9502 -2.4171 0.9772
1.4853 5.0924 -2.4554 0.9769
1.3735 5.0872 -2.4391 0.9770
1.2632 5.0822 -2.4241 0.9772
0.9396 5.0672 -2.3855 0.9775
0.7291 5.0575 -2.3652 0.9777
0.5217 5.0476 -2.3489 0.9779
0.4190 5.0429 -2.3423 0.9779
-0.1888 5.0139 -2.3225 0.9781
-0.2895 5.0091 -2.3225 0.9781
-0.6933 4.9896 -2.3318 0.9780
-0.7951 4.9846 -2.3365 0.9780
-0.9998 4.9746 -2.3487 0.9779
-1.2071 4.9644 -2.3649 0.9777
-1.3119 4.9593 -2.3745 0.9776
-1.4176 4.9540 -2.3852 0.9775
-1.5243 4.9487 -2.3969 0.9774
-1.6320 4.9434 -2.4097 0.9773
-1.8513 4.9325 -2.4387 0.9770
-2.0762 4.9212 -2.4724 0.9767
-2.3078 4.9095 -2.5111 0.9764
-2.5471 4.8974 -2.5552 0.9760
-2.6699 4.8912 -2.5794 0.9757
-4.3913 4.8021 -3.0120 0.9717
-5.3159 4.7535 -3.3009 0.9691
-5.5230 4.7426 -3.3697 0.9684
-5.7390 4.7312 -3.4428 0.9677
-6.2010 4.7068 -3.6035 0.9663
-6.4486 4.6936 -3.6919 0.9655
-6.9828 4.6651 -3.8872 0.9637
-7.2718 4.6498 -3.9953 0.9627
-7.5775 4.6335 -4.1113 0.9616
-7.9016 4.6161 -4.2359 0.9605
-8.2460 4.5977 -4.3701 0.9592
-9.0058 4.5571 -4.6720 0.9565
-10.3678 4.4839 -5.2287 0.9514
-10.8975 4.4554 -5.4496 0.9494
-12.1047 4.3900 -5.9602 0.9448
-13.5636 4.3111 -6.5879 0.9392
-14.4154 4.2650 -6.9586 0.9359
-15.3689 4.2132 -7.3765 0.9322
-15.9522 4.0304 -7.6160 0.9300
-16.1574 3.7387 -7.6766 0.9295
-16.6850 2.8146 -7.8323 0.9281
-16.8290 2.4924 -7.8748 0.9278
-17.2837 0.8058 -8.0090 0.9266
-17.3188 0.4590 -8.0194 0.9265
-17.3311 -0.2371 -8.0230 0.9264
-17.3083 -0.5846 -8.0163 0.9265
-17.2054 -1.2746 -7.9860 0.9268
-17.0279 -1.9518 -7.9335 0.9272
-16.7788 -2.6098 -7.8600 0.9279
-16.6288 -2.9297 -7.8158 0.9283
-16.4626 -3.2426 -7.7667 0.9287
-16.2811 -3.5480 -7.7131 0.9292
-16.0848 -3.8453 -7.6552 0.9297
-15.8746 -4.1338 -7.5932 0.9302
-15.4159 -4.6831 -7.4578 0.9314
-15.1691 -4.9430 -7.3849 0.9321
-14.9118 -5.1928 -7.3090 0.9328
-14.3695 -5.6608 -7.1489 0.9342
-13.4995 -6.2820 -6.8921 0.9365
-13.1979 -6.4672 -6.8031 0.9373
-12.5821 -6.8054 -6.6214 0.9389
-12.2694 -6.9584 -6.5291 0.9397
-10.3694 -7.6632 -5.9683 0.9448
-9.7407 -7.8224 -5.7827 0.9464
-9.4293 -7.8891 -5.6908 0.9473
-9.1204 -7.9475 -5.5997 0.9481
-7.6251 -8.1268 -5.1583 0.9521
-7.0544 -8.1513 -4.9899 0.9536
-6.7756 -8.1546 -4.9076 0.9543
-6.5015 -8.1525 -4.8267 0.9551
-5.7074 -8.1150 -4.5923 0.9572
-5.2022 -8.0671 -4.4432 0.9586
-4.9571 -8.0368 -4.3708 0.9592
-4.4816 -7.9653 -4.2305 0.9605
-4.0258 -7.8801 -4.0960 0.9617
-3.8053 -7.8328 -4.0309 0.9623
-3.1725 -7.6749 -3.8441 0.9641
-2.9710 -7.6174 -3.7846 0.9646
-2.7741 -7.5577 -3.7266 0.9651
-2.2106 -7.3669 -3.5602 0.9667
-2.0316 -7.2998 -3.5074 0.9672
-1.6862 -7.1612 -3.4055 0.9681
-1.3574 -7.0173 -3.3084 0.9690
-1.0445 -6.8689 -3.2160 0.9698
-0.7467 -6.7166 -3.1282 0.9707
-0.6034 -6.6392 -3.0859 0.9710
-0.4637 -6.5611 -3.0446 0.9714
-0.3274 -6.4824 -3.0044 0.9718
-0.0650 -6.3230 -2.9270 0.9725
0.0612 -6.2425 -2.8897 0.9729
0.1843 -6.1616 -2.8534 0.9732
0.4211 -5.9986 -2.7835 0.9738
0.5349 -5.9166 -2.7499 0.9742
0.6459 -5.8343 -2.7171 0.9745
0.7540 -5.7518 -2.6852 0.9748
0.8593 -5.6692 -2.6541 0.9750
0.9619 -5.5863 -2.6239 0.9753
1.2541 -5.3369 -2.5376 0.9761
1.4363 -5.1703 -2.4839 0.9766
1.6090 -5.0035 -2.4329 0.9771
1.6920 -4.9201 -2.4084 0.9773
1.7728 -4.8368 -2.3845 0.9775
1.8514 -4.7535 -2.3613 0.9778
2.0748 -4.5040 -2.2954 0.9784
2.1452 -4.4210 -2.2746 0.9786
2.2137 -4.3381 -2.2544 0.9788
2.3452 -4.1726 -2.2156 0.9791
2.4693 -4.0077 -2.1790 0.9795
2.5288 -3.9254 -2.1614 0.9796
2.5865 -3.8432 -2.1444 0.9798
2.6426 -3.7612 -2.1278 0.9799
2.6971 -3.6793 -2.1117 0.9801
2.8013 -3.5161 -2.0810 0.9804
2.8512 -3.4347 -2.0662 0.9805
2.8994 -3.3534 -2.0520 0.9807
2.9463 -3.2723 -2.0382 0.9808
2.9916 -3.1914 -2.0248 0.9809
3.0355 -3.1105 -2.0118 0.9810
3.2707 -2.6291 -1.9424 0.9817
3.3053 -2.5493 -1.9322 0.9818
3.3709 -2.3903 -1.9128 0.9820
3.4879 -2.0739 -1.8783 0.9823
3.5142 -1.9952 -1.8706 0.9823
3.5394 -1.9165 -1.8631 0.9824
3.6294 -1.6030 -1.8366 0.9827
3.6679 -1.4470 -1.8252 0.9828
3.6856 -1.3690 -1.8200 0.9828
3.7024 -1.2912 -1.8150 0.9829
3.7180 -1.2134 -1.8104 0.9829
3.7327 -1.1358 -1.8061 0.9829
3.7708 -0.9032 -1.7948 0.9831
3.7815 -0.8259 -1.7917 0.9831
3.8000 -0.6712 -1.7862 0.9831
3.8146 -0.5169 -1.7819 0.9832
3.8254 -0.3625 -1.7787 0.9832
3.8294 -0.2854 -1.7775 0.9832
3.8356 -0.0543 -1.7757 0.9832
3.8358 0.0228 -1.7756 0.9832
3.8334 0.1769 -1.7763 0.9832
3.8308 0.2540 -1.7771 0.9832
3.8272 0.3311 -1.7782 0.9832
3.8107 0.5626 -1.7830 0.9832
3.8033 0.6398 -1.7852 0.9831
3.7856 0.7943 -1.7905 0.9831
3.7752 0.8718 -1.7935 0.9831
3.7639 0.9491 -1.7968 0.9830
3.7517 1.0266 -1.8005 0.9830
3.6926 1.3373 -1.8179 0.9828
3.6753 1.4152 -1.8230 0.9828
3.6570 1.4931 -1.8284 0.9827
3.6375 1.5712 -1.8342 0.9827
3.6171 1.6494 -1.8402 0.9826
3.5246 1.9631 -1.8675 0.9824
3.4717 2.1206 -1.8831 0.9822
3.4142 2.2788 -1.9001 0.9821
3.3520 2.4374 -1.9184 0.9819
3.3190 2.5169 -1.9282 0.9818
3.2128 2.7564 -1.9595 0.9815
3.1749 2.8365 -1.9707 0.9814
3.1356 2.9167 -1.9823 0.9813
3.0950 2.9971 -1.9943 0.9812
3.0096 3.1584 -2.0195 0.9810
2.9649 3.2393 -2.0327 0.9808
2.8709 3.4016 -2.0604 0.9806
2.6650 3.7279 -2.1212 0.9800
2.6096 3.8098 -2.1375 0.9799
2.5525 3.8918 -2.1544 0.9797
2.4332 4.0564 -2.1896 0.9794
2.3710 4.1390 -2.2080 0.9792
2.2411 4.3044 -2.2463 0.9788
2.1733 4.3872 -2.2663 0.9787
2.1037 4.4702 -2.2869 0.9785
2.0321 4.5533 -2.3080 0.9783
1.9585 4.6364 -2.3297 0.9781
1.8828 4.7196 -2.3521 0.9779
1.8050 4.8029 -2.3750 0.9776
1.5587 5.0529 -2.4477 0.9770
1.4593 5.0912 -2.4515 0.9769
1.3478 5.0861 -2.4355 0.9771
1.2378 5.0811 -2.4207 0.9772
1.1291 5.0760 -2.4070 0.9773
1.0215 5.0711 -2.3945 0.9775
0.9150 5.0661 -2.3829 0.9776
0.8095 5.0611 -2.3725 0.9777
0.7049 5.0563 -2.3631 0.9777
0.3953 5.0417 -2.3409 0.9780
0.2933 5.0369 -2.3354 0.9780
0.1916 5.0321 -2.3310 0.9780
0.0904 5.0273 -2.3274 0.9781
-0.0106 5.0225 -2.3248 0.9781
-0.1114 5.0177 -2.3232 0.9781
-0.2121 5.0129 -2.3224 0.9781
-0.8187 4.9835 -2.3377 0.9780
-1.0237 4.9735 -2.3504 0.9779
-1.1271 4.9684 -2.3582 0.9778
-1.2313 4.9632 -2.3670 0.9777
-1.5491 4.9475 -2.3998 0.9774
-1.6572 4.9421 -2.4128 0.9773
-2.1027 4.9199 -2.4766 0.9767
-2.5753 4.8960 -2.5607 0.9759
-2.8247 4.8832 -2.6113 0.9754
-2.9532 4.8767 -2.6390 0.9752
2.9432 2.6050 -2.0391 0.9824
2.8674 2.7510 -2.0615 0.9823
2.7864 2.8971 -2.0854 0.9820
2.7441 2.9703 -2.0979 0.9819
2.7004 3.0433 -2.1108 0.9818
2.6089 3.1896 -2.1378 0.9816
2.5611 3.2628 -2.1519 0.9815
2.4091 3.4822 -2.1967 0.9811
2.3555 3.5554 -2.2125 0.9810
2.3004 3.6284 -2.2288 0.9808
2.2437 3.7014 -2.2455 0.9807
2.0643 3.9202 -2.2985 0.9802
2.0012 3.9929 -2.3171 0.9801
1.9365 4.0657 -2.3362 0.9799
1.8700 4.1382 -2.3558 0.9797
1.8017 4.2106 -2.3760 0.9796
1.7317 4.2829 -2.3967 0.9794
1.6599 4.3550 -2.4179 0.9792
1.5862 4.4270 -2.4396 0.9790
1.4331 4.5702 -2.4848 0.9786
1.2723 4.7123 -2.5322 0.9782
1.1888 4.7831 -2.5569 0.9780
1.1033 4.8535 -2.5821 0.9778
1.0157 4.9235 -2.6080 0.9776
0.9259 4.9931 -2.6345 0.9774
0.8332 5.0582 -2.6595 0.9772
0.7284 5.0533 -2.6487 0.9773
0.5213 5.0436 -2.6305 0.9774
0.4186 5.0388 -2.6231 0.9775
0.2150 5.0292 -2.6114 0.9776
0.0128 5.0196 -2.6041 0.9776
-0.0880 5.0148 -2.6020 0.9777
-0.4906 4.9954 -2.6040 0.9776
-0.5916 4.9905 -2.6071 0.9776
-0.6928 4.9856 -2.6113 0.9776
-0.7945 4.9807 -2.6165 0.9775
-0.9990 4.9707 -2.6302 0.9774
-1.1022 4.9656 -2.6387 0.9773
-1.4164 4.9500 -2.6710 0.9771
-1.5230 4.9447 -2.6841 0.9770
-1.6307 4.9393 -2.6985 0.9768
-1.8497 4.9284 -2.7309 0.9766
-1.9613 4.9228 -2.7491 0.9764
-2.1893 4.9113 -2.7895 0.9761
-2.3058 4.9054 -2.8119 0.9759
-2.6677 4.8869 -2.8883 0.9752
-2.7928 4.8805 -2.9171 0.9750
-2.9206 4.8739 -2.9477 0.9747
-3.1845 4.8603 -3.0144 0.9742
-3.3208 4.8529 -3.0506 0.9738
-3.6045 4.8382 -3.1299 0.9732
-3.9036 4.8225 -3.2187 0.9724
-4.0597 4.8143 -3.2670 0.9720
-4.2206 4.8059 -3.3181 0.9716
-4.3868 4.7971 -3.3723 0.9711
-4.5584 4.7881 -3.4296 0.9706
-4.7361 4.7787 -3.4903 0.9701
-5.3099 4.7482 -3.6954 0.9684
-5.5167 4.7372 -3.7723 0.9678
-5.7324 4.7257 -3.8541 0.9671
-5.9577 4.7136 -3.9411 0.9663
-6.1935 4.7010 -4.0337 0.9656
-6.4406 4.6878 -4.1326 0.9647
-6.7002 4.6738 -4.2381 0.9639
-6.9736 4.6591 -4.3509 0.9629
-7.8903 4.6095 -4.7406 0.9597
-8.6003 4.5712 -5.0527 0.9571
-9.8623 4.5025 -5.6243 0.9523
-10.3495 4.4759 -5.8497 0.9505
-10.8775 4.4471 -6.0964 0.9484
-11.1471 4.2980 -6.1978 0.9476
-11.5017 3.9117 -6.3025 0.9467
-11.9775 3.2835 -6.4429 0.9456
-12.1192 3.0620 -6.4847 0.9452
-12.2517 2.8349 -6.5239 0.9449
-12.6818 1.8782 -6.6508 0.9439
-12.8319 1.3764 -6.6951 0.9435
-12.9358 0.8639 -6.7258 0.9433
-12.9590 -0.6986 -6.7326 0.9432
-12.9206 -0.9571 -6.7213 0.9433
-12.4479 -2.4518 -6.5818 0.9444
-12.3314 -2.6873 -6.5474 0.9447
-12.2049 -2.9177 -6.5100 0.9450
-11.9241 -3.3621 -6.4272 0.9457
-11.7706 -3.5757 -6.3819 0.9461
-11.6090 -3.7829 -6.3342 0.9465
-11.0801 -4.3650 -6.1780 0.9478
-10.8907 -4.5451 -6.1222 0.9482
-10.2906 -5.0427 -5.9450 0.9497
-10.0815 -5.1938 -5.8833 0.9502
-9.8686 -5.3376 -5.8205 0.9507
-9.2118 -5.7252 -5.6266 0.9523
-8.7633 -5.9472 -5.4942 0.9534
-8.3098 -6.1411 -5.3604 0.9545
-8.0822 -6.2277 -5.2932 0.9551
-7.8545 -6.3077 -5.2260 0.9556
-7.6269 -6.3811 -5.1588 0.9562
-7.3997 -6.4481 -5.0918 0.9567
-7.1733 -6.5089 -5.0250 0.9573
-6.9479 -6.5636 -4.9584 0.9578
-6.2799 -6.6930 -4.7613 0.9595
-6.0607 -6.7252 -4.6966 0.9600
-5.6286 -6.7741 -4.5690 0.9611
-5.4159 -6.7912 -4.5063 0.9616
-5.2058 -6.8036 -4.4442 0.9621
-4.5912 -6.8149 -4.2628 0.9636
-4.3919 -6.8105 -4.2040 0.9641
-4.0022 -6.7904 -4.0890 0.9651
-3.8120 -6.7750 -4.0329 0.9656
-3.4406 -6.7346 -3.9233 0.9665
-3.2596 -6.7097 -3.8698 0.9669
-3.0819 -6.6820 -3.8174 0.9674
-2.9072 -6.6514 -3.7658 0.9678
-2.7357 -6.6184 -3.7152 0.9682
-2.4024 -6.5449 -3.6168 0.9691
-2.0816 -6.4623 -3.5221 0.9699
-1.7733 -6.3718 -3.4311 0.9706
-1.6238 -6.3238 -3.3870 0.9710
-1.0560 -6.1154 -3.2194 0.9724
-0.9214 -6.0596 -3.1797 0.9728
-0.7897 -6.0027 -3.1409 0.9731
-0.4116 -5.8246 -3.0292 0.9740
-0.1732 -5.7009 -2.9589 0.9746
0.0547 -5.5737 -2.8916 0.9752
0.1647 -5.5089 -2.8591 0.9755
0.2723 -5.4433 -2.8274 0.9757
0.3774 -5.3771 -2.7964 0.9760
0.4801 -5.3102 -2.7661 0.9763
0.5804 -5.2428 -2.7365 0.9765
0.6783 -5.1749 -2.7076 0.9768
0.8674 -5.0375 -2.6518 0.9772
1.3827 -4.6157 -2.4997 0.9785
1.4614 -4.5444 -2.4764 0.9787
1.5382 -4.4728 -2.4538 0.9789
1.6130 -4.4011 -2.4317 0.9791
1.6861 -4.3291 -2.4101 0.9793
1.7572 -4.2568 -2.3891 0.9795
1.9600 -4.0394 -2.3293 0.9800
2.0242 -3.9668 -2.3103 0.9801
2.0867 -3.8939 -2.2919 0.9803
2.3205 -3.6021 -2.2229 0.9809
2.4281 -3.4559 -2.1911 0.9811
2.4797 -3.3827 -2.1759 0.9813
2.5786 -3.2364 -2.1467 0.9815
2.6718 -3.0900 -2.1192 0.9818
2.7596 -2.9439 -2.0933 0.9820
2.8015 -2.8707 -2.0809 0.9821
2.8814 -2.7246 -2.0573 0.9823
2.9196 -2.6516 -2.0461 0.9824
2.9921 -2.5057 -2.0247 0.9826
3.0265 -2.4328 -2.0145 0.9827
3.0598 -2.3600 -2.0047 0.9827
3.0919 -2.2871 -1.9952 0.9828
3.1527 -2.1417 -1.9773 0.9830
3.1814 -2.0691 -1.9688 0.9830
3.2852 -1.7788 -1.9381 0.9833
3.3308 -1.6341 -1.9247 0.9834
3.3520 -1.5618 -1.9184 0.9835
3.3721 -1.4895 -1.9125 0.9835
3.3913 -1.4172 -1.9068 0.9836
3.4095 -1.3450 -1.9015 0.9836
3.4429 -1.2007 -1.8916 0.9837
3.4580 -1.1286 -1.8871 0.9837
3.4723 -1.0565 -1.8829 0.9838
3.4856 -0.9846 -1.8790 0.9838
3.5196 -0.7687 -1.8690 0.9839
3.5376 -0.6250 -1.8637 0.9839
3.5452 -0.5531 -1.8614 0.9840
3.5518 -0.4812 -1.8595 0.9840
3.5575 -0.4094 -1.8578 0.9840
3.5662 -0.2659 -1.8552 0.9840
3.5691 -0.1941 -1.8544 0.9840
3.5711 -0.1223 -1.8537 0.9840
3.5722 -0.0505 -1.8534 0.9840
3.5725 0.0213 -1.8534 0.9840
3.5701 0.1649 -1.8541 0.9840
3.5675 0.2366 -1.8548 0.9840
3.5640 0.3084 -1.8559 0.9840
3.5596 0.3801 -1.8572 0.9840
3.5542 0.4519 -1.8587 0.9840
3.5479 0.5238 -1.8606 0.9840
3.5326 0.6675 -1.8651 0.9839
3.5026 0.8832 -1.8740 0.9839
3.4907 0.9553 -1.8775 0.9838
3.4492 1.1713 -1.8898 0.9837
3.4166 1.3156 -1.8994 0.9836
3.3395 1.6046 -1.9221 0.9834
3.3177 1.6770 -1.9285 0.9834
3.2199 1.9668 -1.9574 0.9831
3.1645 2.1121 -1.9738 0.9830
3.0402 2.4032 -2.0105 0.9827
3.0062 2.4760 -2.0205 0.9826
2.9347 2.6219 -2.0416 0.9824
2.8583 2.7680 -2.0642 0.9822
2.7768 2.9141 -2.0882 0.9820
2.6901 3.0603 -2.1138 0.9818
2.6446 3.1334 -2.1272 0.9817
2.5979 3.2065 -2.1410 0.9816
2.5498 3.2797 -2.1552 0.9815
2.5002 3.3529 -2.1698 0.9813
2.3429 3.5722 -2.2163 0.9809
2.2304 3.7184 -2.2495 0.9807
2.1718 3.7913 -2.2668 0.9805
2.1116 3.8642 -2.2845 0.9804
1.9212 4.0824 -2.3407 0.9799
1.8544 4.1550 -2.3605 0.9797
1.7857 4.2274 -2.3807 0.9795
1.2532 4.7288 -2.5379 0.9782
1.0832 4.8696 -2.5881 0.9778
0.9950 4.9396 -2.6141 0.9775
0.6005 5.0473 -2.6369 0.9774
0.4975 5.0425 -2.6287 0.9774
0.3950 5.0378 -2.6215 0.9775
0.2930 5.0329 -2.6154 0.9775
0.0903 5.0233 -2.6064 0.9776
-0.1112 5.0138 -2.6016 0.9777
-0.3126 5.0040 -2.6010 0.9777
-0.4132 4.9992 -2.6023 0.9776
-0.5140 4.9943 -2.6046 0.9776
-0.6150 4.9895 -2.6080 0.9776
-0.7163 4.9845 -2.6124 0.9776
-0.9202 4.9745 -2.6245 0.9775
-1.1263 4.9644 -2.6409 0.9773
-1.4410 4.9488 -2.6740 0.9770
-1.7650 4.9326 -2.7178 0.9767
-1.8754 4.9271 -2.7350 0.9765
-2.1009 4.9157 -2.7733 0.9762
-2.2161 4.9099 -2.7946 0.9760
-2.5731 4.8917 -2.8674 0.9754
-2.6965 4.8854 -2.8949 0.9752
-2.9505 4.8724 -2.9550 0.9747
2.7273 2.4139 -2.1028 0.9833
2.6917 2.4806 -2.1133 0.9832
2.6169 2.6137 -2.1354 0.9831
2.5374 2.7465 -2.1589 0.9829
2.4958 2.8128 -2.1711 0.9828
2.4530 2.8791 -2.1838 0.9827
2.4089 2.9452 -2.1968 0.9826
2.3636 3.0112 -2.2102 0.9825
2.3169 3.0771 -2.2239 0.9824
2.2690 3.1429 -2.2381 0.9823
2.2197 3.2086 -2.2526 0.9821
2.1691 3.2741 -2.2675 0.9820
2.1172 3.3395 -2.2829 0.9819
2.0638 3.4046 -2.2986 0.9818
2.0091 3.4696 -2.3148 0.9817
1.9528 3.5344 -2.3314 0.9815
1.8952 3.5990 -2.3484 0.9814
1.8360 3.6633 -2.3659 0.9813
1.7754 3.7275 -2.3838 0.9811
1.7132 3.7914 -2.4021 0.9810
1.6496 3.8550 -2.4209 0.9808
1.5174 3.9812 -2.4599 0.9805
1.3788 4.1061 -2.5008 0.9802
1.1584 4.2906 -2.5659 0.9797
1.0028 4.4111 -2.6118 0.9793
0.9223 4.4707 -2.6356 0.9791
0.8399 4.5297 -2.6599 0.9789
0.7557 4.5881 -2.6847 0.9788
0.6697 4.6460 -2.7101 0.9786
0.5818 4.7031 -2.7361 0.9783
0.4919 4.7596 -2.7626 0.9781
0.4001 4.8152 -2.7897 0.9779
0.0128 5.0298 -2.9040 0.9770
-0.2890 5.0010 -2.8922 0.9771
-0.4902 4.9913 -2.8956 0.9771
-0.6922 4.9815 -2.9037 0.9770
-0.8957 4.9716 -2.9165 0.9769
-0.9982 4.9665 -2.9248 0.9769
-1.2051 4.9563 -2.9449 0.9767
-1.3097 4.9511 -2.9568 0.9766
-1.4152 4.9459 -2.9701 0.9765
-1.5217 4.9405 -2.9847 0.9764
-1.6293 4.9352 -3.0006 0.9763
-1.8482 4.9241 -3.0366 0.9760
-2.3038 4.9010 -3.1266 0.9753
-3.0482 4.8625 -3.3134 0.9738
-3.4574 4.8409 -3.4345 0.9729
-3.6009 4.8333 -3.4798 0.9725
-4.0555 4.8093 -3.6321 0.9714
