ply
format ascii 1.0
element vertex 1534
property float32 x
property float32 y
property float32 z
property float32 I
end_header
-10.0519 9.2703 -1.6243 0.9464
-10.2078 8.6810 -1.5917 0.9475
-10.2812 8.3930 -1.5765 0.9479
-10.3516 8.1091 -1.5620 0.9484
-10.4193 7.8290 -1.5481 0.9489
-14.2298 8.9998 -2.0000 0.9344
-15.4162 8.9030 -2.1147 0.9308
-35.2727 5.0266 -4.2322 0.8663
-16.2301 -8.9107 -2.1994 0.9281
-14.0199 -12.8904 -2.2623 0.9262
-13.5723 -12.9921 -2.2318 0.9271
-13.5767 -14.0856 -2.3239 0.9242
-12.9077 -13.9421 -2.2569 0.9263
-12.4484 -14.0005 -2.2254 0.9273
-11.8968 -13.9349 -2.1765 0.9289
-13.1939 -16.0990 -2.4725 0.9196
-11.5620 -15.3257 -2.2805 0.9256
-11.2447 -15.5459 -2.2791 0.9256
-10.9255 -15.7628 -2.2782 0.9257
-10.5594 -15.9087 -2.2682 0.9260
-13.8936 -25.1018 -3.4080 0.8909
-8.9104 -19.6850 -2.5667 0.9166
-8.4734 -19.7686 -2.5548 0.9170
-5.0786 -12.5389 -1.6070 0.9470
-6.3668 -18.9271 -2.3721 0.9227
-5.2144 -17.8462 -2.2085 0.9278
-4.8276 -17.8486 -2.1964 0.9282
-4.4182 -17.7434 -2.1721 0.9290
-3.2388 -17.4320 -2.1062 0.9311
-3.4958 -28.1954 -3.3748 0.8919
-1.6296 -19.5575 -2.3312 0.9240
-0.4738 -11.0369 -1.3122 0.9565
0.2541 -14.5687 -1.7308 0.9430
0.7452 -12.9082 -1.5358 0.9493
1.1482 -11.6905 -1.3953 0.9538
1.3257 -11.1814 -1.3375 0.9557
1.5329 -11.0271 -1.3225 0.9561
1.7354 -10.8754 -1.3082 0.9566
1.9336 -10.7261 -1.2946 0.9570
2.3177 -10.4339 -1.2696 0.9579
2.6871 -10.1496 -1.2471 0.9586
3.1953 -9.6695 -1.2097 0.9598
3.3399 -9.4639 -1.1921 0.9604
3.4823 -9.2691 -1.1762 0.9609
3.9780 -8.9144 -1.1595 0.9614
4.4387 -8.5247 -1.1416 0.9620
4.5868 -8.3925 -1.1361 0.9622
4.3326 -6.3229 -0.9105 0.9696
4.7382 -6.3510 -0.9412 0.9686
5.9358 -7.0286 -1.0928 0.9636
5.9888 -6.8086 -1.0771 0.9641
6.1005 -6.3973 -1.0500 0.9650
6.3401 -5.8922 -1.0281 0.9657
6.3996 -5.7120 -1.0189 0.9660
6.4765 -5.3286 -0.9962 0.9668
6.5123 -5.1420 -0.9856 0.9671
6.5467 -4.9586 -0.9755 0.9675
6.5793 -4.7782 -0.9659 0.9678
6.6105 -4.6006 -0.9567 0.9681
6.6402 -4.4257 -0.9479 0.9684
6.6686 -4.2534 -0.9396 0.9686
6.6955 -4.0836 -0.9316 0.9689
6.7212 -3.9160 -0.9240 0.9692
6.7456 -3.7505 -0.9168 0.9694
6.8675 -2.7969 -0.8808 0.9706
6.8841 -2.6435 -0.8759 0.9707
6.9141 -2.3405 -0.8671 0.9710
6.9276 -2.1909 -0.8631 0.9712
6.9402 -2.0422 -0.8594 0.9713
6.9725 -1.6020 -0.8498 0.9716
6.9815 -1.4570 -0.8472 0.9717
6.9896 -1.3125 -0.8448 0.9718
4.5870 -0.7662 -0.5524 0.9814
4.3720 -0.5506 -0.5234 0.9824
4.3702 -0.1080 -0.5193 0.9825
4.3690 -0.0200 -0.5190 0.9826
4.3697 0.0679 -0.5191 0.9826
4.3707 0.2439 -0.5200 0.9825
4.3691 0.3321 -0.5205 0.9825
4.3642 0.5089 -0.5219 0.9825
4.6828 0.8349 -0.5650 0.9810
6.9768 1.5357 -0.8486 0.9716
6.9673 1.6812 -0.8514 0.9715
6.9457 1.9748 -0.8578 0.9713
6.9204 2.2721 -0.8652 0.9711
6.8912 2.5739 -0.8738 0.9708
6.4833 2.7235 -0.8353 0.9721
6.4663 2.8706 -0.8404 0.9719
6.4491 3.0197 -0.8459 0.9717
6.4309 3.1704 -0.8517 0.9715
6.4116 3.3229 -0.8578 0.9713
6.3912 3.4771 -0.8643 0.9711
6.3469 3.7915 -0.8782 0.9707
6.3230 3.9519 -0.8857 0.9704
6.2978 4.1145 -0.8936 0.9702
6.2713 4.2796 -0.9019 0.9699
6.2142 4.6177 -0.9197 0.9693
6.1504 4.9663 -0.9390 0.9687
6.0394 5.5104 -0.9711 0.9676
5.9990 5.6988 -0.9829 0.9672
5.7117 5.8807 -0.9738 0.9675
5.5216 5.9186 -0.9615 0.9679
4.7511 5.7522 -0.8863 0.9704
5.9681 -3.5776 -1.1463 0.9722
5.9958 -3.4321 -1.1381 0.9724
6.0221 -3.2882 -1.1303 0.9726
6.0472 -3.1457 -1.1229 0.9727
6.0710 -3.0045 -1.1159 0.9729
6.0936 -2.8646 -1.1092 0.9731
6.1150 -2.7259 -1.1029 0.9732
6.1543 -2.4517 -1.0913 0.9735
6.1891 -2.1814 -1.0811 0.9737
6.2048 -2.0477 -1.0764 0.9739
6.2459 -1.6510 -1.0643 0.9742
6.2575 -1.5201 -1.0609 0.9742
4.4020 -0.8835 -0.7397 0.9820
4.2625 -0.7668 -0.7135 0.9826
4.1806 -0.6654 -0.6974 0.9830
4.1376 -0.5736 -0.6882 0.9832
4.1261 -0.4875 -0.6845 0.9833
4.1294 -0.1535 -0.6808 0.9834
4.1287 0.0126 -0.6802 0.9834
4.1292 0.0957 -0.6804 0.9834
4.1299 0.1789 -0.6810 0.9834
4.1304 0.2622 -0.6818 0.9834
4.1289 0.3456 -0.6826 0.9833
4.1263 0.4291 -0.6834 0.9833
4.1287 0.5136 -0.6854 0.9833
4.1873 0.6929 -0.6992 0.9829
4.2780 0.7965 -0.7169 0.9825
4.4546 0.9225 -0.7494 0.9817
6.2541 1.5599 -1.0619 0.9742
6.2421 1.6909 -1.0654 0.9741
6.2292 1.8227 -1.0692 0.9740
6.2152 1.9550 -1.0734 0.9739
6.2001 2.0883 -1.0778 0.9738
6.1841 2.2224 -1.0826 0.9737
6.1486 2.4932 -1.0930 0.9735
5.6873 3.1507 -1.0711 0.9740
5.6370 3.4262 -1.0867 0.9736
5.6099 3.5662 -1.0951 0.9734
5.5814 3.7078 -1.1039 0.9732
5.5516 3.8511 -1.1131 0.9730
5.5204 3.9963 -1.1227 0.9728
5.4877 4.1433 -1.1328 0.9725
5.2556 5.0696 -1.2030 0.9708
5.2097 5.2318 -1.2163 0.9705
5.1629 5.3976 -1.2305 0.9702
5.1133 5.5656 -1.2451 0.9698
5.0615 5.7367 -1.2603 0.9695
4.3985 5.8771 -1.2093 0.9707
4.2087 5.8657 -1.1894 0.9712
3.8946 5.9167 -1.1670 0.9717
3.7410 5.9402 -1.1565 0.9719
3.5581 5.9102 -1.1365 0.9724
3.1692 5.7782 -1.0857 0.9736
2.9136 5.8594 -1.0781 0.9738
2.5222 5.9468 -1.0642 0.9742
1.9569 5.8920 -1.0228 0.9751
1.8323 5.9116 -1.0196 0.9752
1.7169 5.9609 -1.0219 0.9752
1.5773 5.9213 -1.0095 0.9755
1.3892 6.2094 -1.0482 0.9745
1.0940 6.0165 -1.0074 0.9755
0.4698 5.9121 -0.9770 0.9762
0.2305 5.8982 -0.9724 0.9764
0.1122 5.9241 -0.9761 0.9763
-0.3756 6.0992 -1.0067 0.9755
-0.5084 6.2145 -1.0272 0.9750
-0.9324 6.5235 -1.0856 0.9736
-1.8404 7.4391 -1.2625 0.9694
-1.9966 7.4263 -1.2669 0.9693
-2.1585 7.4294 -1.2745 0.9691
-2.4887 7.4357 -1.2917 0.9687
-2.8285 7.4421 -1.3116 0.9682
-3.0025 7.4455 -1.3225 0.9680
-3.3598 7.4523 -1.3467 0.9674
-3.5435 7.4558 -1.3599 0.9671
-3.7309 7.4594 -1.3740 0.9668
-4.1180 7.4668 -1.4048 0.9660
-4.3184 7.4707 -1.4215 0.9656
-4.5236 7.4746 -1.4393 0.9652
-5.3812 7.4634 -1.5158 0.9634
-5.8587 7.4727 -1.5643 0.9622
-6.1092 7.4775 -1.5907 0.9616
-6.9420 7.5212 -1.6862 0.9594
-7.0143 7.0115 -1.6339 0.9606
-8.7444 8.0645 -1.9596 0.9529
-8.8253 7.8166 -1.9421 0.9533
-8.9782 7.3293 -1.9093 0.9541
-9.0503 7.0896 -1.8939 0.9545
-11.0104 7.6002 -2.2040 0.9472
-11.5132 7.6100 -2.2736 0.9456
-12.0045 7.2585 -2.3110 0.9447
-14.9675 8.2470 -2.8153 0.9331
-31.8339 15.9061 -5.8625 0.8657
-31.6915 15.0462 -5.7794 0.8674
-31.7213 14.2858 -5.7312 0.8685
-31.7773 12.8000 -5.6437 0.8703
-31.8293 11.3557 -5.5673 0.8720
-16.0581 5.3675 -2.7893 0.9337
-31.9002 9.2543 -5.4719 0.8740
-33.5946 9.0175 -5.7303 0.8685
-36.7641 9.0796 -6.2385 0.8577
-34.1464 5.5691 -5.6996 0.8691
-35.4620 5.0536 -5.9010 0.8648
-30.2915 -2.4193 -5.0061 0.8841
-30.2640 -3.0307 -5.0106 0.8840
-43.4390 -16.4147 -7.6500 0.8284
-13.5247 -7.0751 -2.5146 0.9400
-13.7706 -12.6611 -3.0817 0.9270
-12.6093 -13.0818 -2.9932 0.9290
-11.8502 -15.0676 -3.1580 0.9252
-10.4662 -15.1000 -3.0267 0.9282
-9.3227 -16.8438 -3.1715 0.9249
-8.7761 -16.6375 -3.0988 0.9266
-8.4004 -16.7323 -3.0843 0.9269
-8.0066 -16.7815 -3.0631 0.9274
-7.5696 -16.7229 -3.0240 0.9283
-5.1507 -12.7168 -2.2603 0.9459
-4.8159 -12.6136 -2.2242 0.9467
-4.8285 -16.5255 -2.8363 0.9326
-4.4475 -16.4430 -2.8062 0.9333
-7.5321 -30.2491 -5.1354 0.8813
-5.4446 -23.9066 -4.0392 0.9054
-4.9086 -23.7495 -3.9952 0.9064
-4.3811 -23.5810 -3.9512 0.9073
-3.1303 -21.6687 -3.6067 0.9151
-2.6314 -21.2237 -3.5231 0.9170
-0.0346 -12.9529 -2.1338 0.9488
0.4447 -11.8343 -1.9509 0.9531
0.6523 -11.2979 -1.8643 0.9552
0.8421 -10.8050 -1.7854 0.9570
1.4299 -10.2864 -1.7109 0.9588
1.9888 -9.8889 -1.6617 0.9599
2.4703 -9.3308 -1.5901 0.9616
2.6187 -9.1441 -1.5669 0.9622
2.7626 -8.9614 -1.5449 0.9627
3.9648 -8.0034 -1.4714 0.9644
3.2997 -6.3373 -1.1771 0.9715
3.6318 -6.3388 -1.2035 0.9708
3.9662 -6.3189 -1.2291 0.9702
4.7662 -7.2648 -1.4314 0.9654
4.8387 -7.0614 -1.4102 0.9659
5.0450 -6.4858 -1.3536 0.9672
5.2122 -6.1717 -1.3308 0.9678
5.3006 -6.0262 -1.3222 0.9680
5.5452 -5.3654 -1.2711 0.9692
5.6356 -5.0301 -1.2444 0.9698
5.6780 -4.8664 -1.2319 0.9701
5.7186 -4.7049 -1.2199 0.9704
5.7574 -4.5459 -1.2085 0.9707
5.8641 -4.0811 -1.1770 0.9715
5.9572 -3.6333 -1.1495 0.9721
5.9854 -3.4873 -1.1412 0.9723
6.0122 -3.3429 -1.1333 0.9725
6.0379 -3.1998 -1.1257 0.9727
6.1471 -2.5036 -1.0934 0.9735
6.1828 -2.2326 -1.0829 0.9737
6.1989 -2.0986 -1.0781 0.9738
6.2412 -1.7009 -1.0657 0.9741
6.2532 -1.5698 -1.0621 0.9742
6.2744 -1.3093 -1.0559 0.9744
4.2079 -0.7028 -0.7028 0.9829
4.1283 -0.5199 -0.6855 0.9833
4.1242 -0.4354 -0.6832 0.9833
4.1272 -0.3518 -0.6824 0.9833
4.1289 -0.0189 -0.6802 0.9834
4.1291 0.0641 -0.6803 0.9834
4.1297 0.1473 -0.6808 0.9834
4.1303 0.2305 -0.6815 0.9834
4.1298 0.3139 -0.6823 0.9833
4.1263 0.4812 -0.6844 0.9833
4.1326 0.5664 -0.6872 0.9832
4.1739 0.6579 -0.6961 0.9830
4.2435 0.7566 -0.7101 0.9827
4.3423 0.8646 -0.7294 0.9822
6.2468 1.6411 -1.0640 0.9742
6.2342 1.7725 -1.0677 0.9741
6.2206 1.9046 -1.0718 0.9740
6.2060 2.0376 -1.0761 0.9739
6.1557 2.4414 -1.0909 0.9735
6.1367 2.5778 -1.0965 0.9734
6.0079 2.6671 -1.0829 0.9737
5.7643 2.6991 -1.0485 0.9745
5.7409 2.8303 -1.0544 0.9744
5.7191 2.9639 -1.0612 0.9742
5.6722 3.2355 -1.0758 0.9739
5.6469 3.3734 -1.0836 0.9737
5.5924 3.6537 -1.1005 0.9733
5.5324 3.9409 -1.1190 0.9728
5.5003 4.0872 -1.1289 0.9726
5.2726 5.0087 -1.1981 0.9709
5.1812 5.3344 -1.2251 0.9703
4.9093 5.9438 -1.2700 0.9692
4.6867 5.9127 -1.2430 0.9699
5.2741 -3.6110 -1.3511 0.9742
5.3072 -3.4789 -1.3414 0.9744
5.3387 -3.3480 -1.3321 0.9746
5.3688 -3.2184 -1.3232 0.9747
5.3976 -3.0898 -1.3147 0.9749
5.4251 -2.9622 -1.3066 0.9750
5.4512 -2.8357 -1.2989 0.9752
5.4760 -2.7101 -1.2915 0.9753
5.4996 -2.5854 -1.2846 0.9755
5.5220 -2.4615 -1.2780 0.9756
5.5631 -2.2163 -1.2658 0.9758
5.5820 -2.0946 -1.2603 0.9759
5.5997 -1.9737 -1.2550 0.9760
5.6461 -1.6146 -1.2413 0.9763
5.6717 -1.3778 -1.2338 0.9764
5.6829 -1.2601 -1.2304 0.9765
4.1354 -0.8301 -0.8916 0.9829
3.9928 -0.6356 -0.8546 0.9836
3.9621 -0.4682 -0.8433 0.9838
3.9450 -0.3059 -0.8364 0.9840
3.9394 -0.2259 -0.8341 0.9840
3.9363 -0.1464 -0.8326 0.9840
3.9308 0.0120 -0.8309 0.9841
3.9377 0.1705 -0.8331 0.9840
3.9413 0.2502 -0.8348 0.9840
3.9482 0.3305 -0.8375 0.9839
3.9578 0.4116 -0.8411 0.9839
3.9663 0.4933 -0.8449 0.9838
3.9762 0.5759 -0.8493 0.9837
4.0007 0.6620 -0.8572 0.9836
4.1850 0.8667 -0.9034 0.9827
5.6681 1.4137 -1.2348 0.9764
5.6555 1.5321 -1.2386 0.9763
5.6418 1.6508 -1.2426 0.9763
5.6271 1.7701 -1.2469 0.9762
5.6113 1.8900 -1.2516 0.9761
5.5944 2.0105 -1.2566 0.9760
5.5572 2.2534 -1.2676 0.9758
5.5153 2.4992 -1.2799 0.9755
5.1208 2.8369 -1.2375 0.9764
5.0950 2.9581 -1.2454 0.9762
5.0397 3.2037 -1.2624 0.9759
5.0102 3.3282 -1.2714 0.9757
4.9467 3.5810 -1.2909 0.9753
4.9128 3.7093 -1.3012 0.9751
4.8774 3.8389 -1.3120 0.9749
4.8404 3.9700 -1.3233 0.9747
4.7616 4.2370 -1.3473 0.9743
4.7196 4.3728 -1.3600 0.9740
4.6304 4.6500 -1.3871 0.9735
4.5829 4.7912 -1.4015 0.9733
4.5332 4.9343 -1.4164 0.9730
4.4269 5.2257 -1.4477 0.9724
4.3705 5.3746 -1.4643 0.9721
4.2508 5.6797 -1.4996 0.9714
4.1873 5.8360 -1.5183 0.9711
4.0514 5.8933 -1.5117 0.9712
4.0138 6.0978 -1.5432 0.9706
3.3560 5.8371 -1.4233 0.9728
3.1585 5.7586 -1.3884 0.9735
3.0465 5.8295 -1.3904 0.9735
2.5081 5.9137 -1.3578 0.9741
2.3725 5.9227 -1.3487 0.9743
2.2175 5.8754 -1.3275 0.9747
2.1106 5.9518 -1.3349 0.9745
1.8343 5.9180 -1.3097 0.9750
1.5922 5.9775 -1.3076 0.9750
1.4733 6.0147 -1.3090 0.9750
1.2204 6.0209 -1.2986 0.9752
0.9522 5.9095 -1.2653 0.9758
0.4786 6.0219 -1.2769 0.9756
-0.0069 5.8858 -1.2442 0.9762
-0.3756 6.0977 -1.2914 0.9753
-0.6402 6.2707 -1.3324 0.9746
-0.7715 6.3000 -1.3417 0.9744
-0.8639 6.0445 -1.2907 0.9753
-1.0856 5.8926 -1.2666 0.9758
-1.2089 5.8942 -1.2719 0.9757
-1.3310 5.8853 -1.2755 0.9756
-1.7999 6.1951 -1.3637 0.9740
-1.9216 6.1495 -1.3619 0.9740
-2.0661 6.1730 -1.3760 0.9737
-2.2582 6.3215 -1.4190 0.9729
-2.6124 6.8733 -1.5543 0.9704
-3.0034 7.4476 -1.6975 0.9677
-3.1804 7.4510 -1.7125 0.9674
-3.5445 7.4580 -1.7455 0.9668
-3.9235 7.4653 -1.7827 0.9661
-4.3197 7.4729 -1.8246 0.9653
-4.5250 7.4769 -1.8474 0.9649
-5.6391 7.4985 -1.9832 0.9624
-5.8826 7.5032 -2.0154 0.9618
-6.9445 7.5239 -2.1643 0.9590
-7.2507 7.5454 -2.2120 0.9581
-7.8823 7.8791 -2.3558 0.9555
-8.8921 7.5620 -2.4674 0.9534
-9.6366 7.5490 -2.5876 0.9512
-10.0575 7.5573 -2.6593 0.9499
-10.5026 7.5661 -2.7361 0.9485
-11.5188 7.6137 -2.9187 0.9451
-12.0550 7.6243 -3.0151 0.9434
-12.7589 7.3684 -3.1144 0.9415
-12.8312 7.0698 -3.0967 0.9419
-15.6602 8.2223 -3.7388 0.9302
-15.7427 6.7123 -3.6176 0.9324
-55.2775 22.2660 -12.5969 0.7838
-40.0261 12.4898 -8.8631 0.8425
-32.7046 6.6941 -7.0564 0.8724
-33.0103 5.3838 -7.0699 0.8722
-34.4861 4.2088 -7.3438 0.8676
-29.8356 -7.9600 -6.5272 0.8814
-36.7235 -14.7277 -8.3636 0.8506
-36.8319 -19.2676 -8.7865 0.8437
-14.2540 -12.5861 -4.0195 0.9252
-11.8791 -13.3604 -3.7790 0.9295
-12.3939 -14.5173 -4.0349 0.9249
-11.2770 -14.9481 -3.9580 0.9263
-7.9361 -11.9565 -3.0334 0.9430
-7.5605 -12.4500 -3.0789 0.9422
-9.0866 -16.4171 -3.9663 0.9262
-8.4892 -16.0936 -3.8461 0.9283
-7.7395 -16.2218 -3.7992 0.9292
-7.0183 -16.3739 -3.7656 0.9298
-6.6675 -16.4622 -3.7543 0.9300
-4.8310 -12.6532 -2.8629 0.9461
-4.5565 -12.6948 -2.8510 0.9463
-5.7911 -17.2162 -3.8395 0.9284
-5.5575 -17.6918 -3.9198 0.9270
-5.3128 -18.1842 -4.0044 0.9255
-5.0780 -18.7754 -4.1113 0.9236
-3.1842 -17.1389 -3.6848 0.9312
-2.3216 -16.0708 -3.4323 0.9358
-1.9314 -15.5782 -3.3181 0.9378
-0.7712 -12.2225 -2.5887 0.9512
-0.2508 -11.0057 -2.3270 0.9560
0.3926 -10.4497 -2.2104 0.9581
0.7791 -9.9960 -2.1193 0.9598
0.9696 -9.8727 -2.0969 0.9603
1.3249 -9.5311 -2.0340 0.9614
1.4921 -9.3507 -2.0015 0.9620
1.8104 -9.0017 -1.9409 0.9632
1.9620 -8.8328 -1.9126 0.9637
2.1090 -8.6671 -1.8855 0.9642
2.2516 -8.5047 -1.8596 0.9647
2.5244 -8.1886 -1.8113 0.9656
2.8201 -7.9909 -1.7912 0.9659
2.8284 -6.3384 -1.4671 0.9720
2.9771 -6.3266 -1.4780 0.9718
3.1264 -6.3113 -1.4888 0.9716
3.5473 -6.4907 -1.5636 0.9702
3.9320 -6.8629 -1.6719 0.9682
4.0137 -6.6897 -1.6491 0.9686
4.3688 -6.1084 -1.5874 0.9698
4.6095 -5.6862 -1.5473 0.9705
4.7816 -5.2207 -1.4965 0.9715
4.8346 -5.0699 -1.4808 0.9718
4.8855 -4.9212 -1.4658 0.9720
4.9814 -4.6295 -1.4375 0.9726
5.0266 -4.4864 -1.4242 0.9728
5.1513 -4.0673 -1.3874 0.9735
5.3269 -3.3977 -1.3355 0.9745
5.3868 -3.1386 -1.3179 0.9748
5.4414 -2.8837 -1.3017 0.9751
5.5136 -2.5086 -1.2804 0.9755
5.5749 -2.1409 -1.2623 0.9759
5.5930 -2.0197 -1.2570 0.9760
5.6101 -1.8992 -1.2520 0.9761
5.6259 -1.7793 -1.2473 0.9762
5.6407 -1.6599 -1.2429 0.9762
5.6671 -1.4227 -1.2351 0.9764
5.6788 -1.3048 -1.2317 0.9765
3.9773 -0.5823 -0.8497 0.9837
3.9405 -0.2562 -0.8347 0.9840
3.9344 -0.0972 -0.8319 0.9840
3.9315 -0.0180 -0.8311 0.9841
3.9326 0.0611 -0.8314 0.9840
3.9363 0.1404 -0.8326 0.9840
3.9399 0.2198 -0.8341 0.9840
3.9442 0.2998 -0.8361 0.9840
3.9545 0.3807 -0.8398 0.9839
3.9630 0.4622 -0.8434 0.9838
3.9892 0.6287 -0.8537 0.9836
4.0212 0.7169 -0.8634 0.9834
5.6838 1.2511 -1.2302 0.9765
5.6726 1.3689 -1.2335 0.9764
5.6604 1.4870 -1.2371 0.9764
5.6328 1.7246 -1.2452 0.9762
5.6174 1.8443 -1.2498 0.9761
5.6009 1.9646 -1.2547 0.9760
5.5833 2.0854 -1.2599 0.9759
5.5646 2.2069 -1.2654 0.9758
5.5447 2.3291 -1.2713 0.9757
5.1870 2.6882 -1.2349 0.9764
5.1049 2.9119 -1.2423 0.9763
5.0785 3.0338 -1.2505 0.9761
5.0216 3.2808 -1.2679 0.9758
4.8910 3.7895 -1.3079 0.9750
4.8546 3.9200 -1.3190 0.9748
4.8167 4.0521 -1.3305 0.9746
4.7358 4.3210 -1.3551 0.9741
4.3344 5.4681 -1.4750 0.9719
4.8400 -3.0354 -1.4792 0.9767
4.8704 -2.9196 -1.4703 0.9768
4.8995 -2.8046 -1.4617 0.9769
4.9787 -2.4640 -1.4383 0.9773
5.0862 -1.9086 -1.4066 0.9778
5.1042 -1.7991 -1.4013 0.9779
5.1651 -1.3653 -1.3833 0.9782
5.1777 -1.2579 -1.3796 0.9782
5.1892 -1.1506 -1.3762 0.9783
4.0998 -0.8229 -1.0827 0.9829
3.9711 -0.5505 -1.0380 0.9836
3.9530 -0.4671 -1.0306 0.9837
3.9399 -0.3854 -1.0250 0.9838
3.9268 -0.3046 -1.0198 0.9839
3.9174 -0.2246 -1.0160 0.9839
3.9113 0.0906 -1.0130 0.9840
3.9449 0.4103 -1.0269 0.9837
3.9589 0.4924 -1.0329 0.9837
3.9790 0.5764 -1.0410 0.9835
4.0412 0.7525 -1.0643 0.9832
4.1229 0.8538 -1.0901 0.9828
5.1740 1.2904 -1.3807 0.9782
5.1322 1.6144 -1.3930 0.9780
5.1160 1.7231 -1.3978 0.9779
5.0610 2.0521 -1.4140 0.9777
5.0185 2.2740 -1.4266 0.9775
4.9954 2.3858 -1.4334 0.9774
4.9457 2.6114 -1.4481 0.9772
4.8283 2.6749 -1.4292 0.9775
4.6432 2.6958 -1.3902 0.9781
4.5957 2.7932 -1.3925 0.9780
4.5666 2.9030 -1.4011 0.9779
4.5054 3.1254 -1.4198 0.9776
4.4031 3.4657 -1.4508 0.9771
4.3275 3.6975 -1.4738 0.9768
4.2874 3.8150 -1.4860 0.9766
4.2456 3.9337 -1.4986 0.9764
4.2022 4.0536 -1.5117 0.9762
4.1101 4.2970 -1.5396 0.9757
4.0107 4.5457 -1.5696 0.9753
3.9580 4.6722 -1.5855 0.9750
3.9033 4.8002 -1.6019 0.9748
3.6614 5.3260 -1.6734 0.9736
3.5951 5.4616 -1.6930 0.9733
3.4549 5.7386 -1.7343 0.9727
3.0821 5.8976 -1.7230 0.9729
3.0252 6.0839 -1.7593 0.9723
2.8450 6.0221 -1.7245 0.9729
2.6961 6.0172 -1.7072 0.9731
2.3707 5.9182 -1.6507 0.9740
2.2448 5.9478 -1.6460 0.9741
1.6011 6.0108 -1.6106 0.9746
1.4961 6.1078 -1.6282 0.9744
1.0757 5.9159 -1.5569 0.9755
0.7077 5.8929 -1.5368 0.9758
0.4733 5.9559 -1.5470 0.9756
0.3447 5.8186 -1.5092 0.9762
0.1120 5.9105 -1.5306 0.9759
-0.3786 6.1472 -1.5947 0.9749
-0.5036 6.1560 -1.5992 0.9748
-0.6352 6.2217 -1.6193 0.9745
-0.8328 5.8272 -1.5241 0.9760
-0.9407 5.7537 -1.5095 0.9762
-1.0747 5.8337 -1.5359 0.9758
-1.3372 5.9129 -1.5696 0.9753
-1.6299 6.0624 -1.6254 0.9744
-2.2831 6.0070 -1.6639 0.9738
-2.4394 6.0489 -1.6887 0.9734
-2.8998 6.1014 -1.7491 0.9725
-3.0226 6.0432 -1.7495 0.9725
-3.4109 6.1846 -1.8287 0.9712
-3.5202 6.0896 -1.8212 0.9714
-3.8609 6.3795 -1.9307 0.9697
-4.1448 6.5477 -2.0065 0.9685
-4.5832 6.3566 -2.0290 0.9681
-5.8846 7.5057 -2.4695 0.9614
-6.9471 7.5266 -2.6520 0.9586
-7.7227 8.0365 -2.8858 0.9550
-8.1878 7.5511 -2.8839 0.9550
-9.6771 7.5807 -3.1828 0.9505
-10.5469 7.5980 -3.3656 0.9477
-11.0207 7.6075 -3.4673 0.9462
-12.6348 7.6396 -3.8229 0.9408
-15.6403 5.2278 -4.2698 0.9341
-47.6400 14.8656 -12.9214 0.8137
-31.7337 7.8372 -8.4633 0.8737
-31.8894 7.1984 -8.4645 0.8736
-32.0130 5.8843 -8.4276 0.8742
-31.5103 4.4905 -8.2410 0.8768
-32.9590 4.0224 -8.5970 0.8718
-33.7714 3.4337 -8.7891 0.8691
-39.1757 3.1886 -10.1769 0.8501
-95.3141 -7.6124 -24.7571 0.6736
-92.2631 -9.2396 -24.0081 0.6817
-49.9208 -6.0157 -13.0189 0.8124
-79.3988 -11.1922 -20.7610 0.7180
-72.2866 -11.6770 -18.9589 0.7389
-64.9974 -11.8455 -17.1062 0.7611
-47.5638 -11.6704 -12.6804 0.8168
-29.4223 -7.8498 -7.8844 0.8818
-35.3344 -12.5460 -9.7083 0.8565
-34.5258 -13.0466 -9.5563 0.8586
-33.5314 -15.0399 -9.5152 0.8591
-32.6156 -17.0620 -9.5305 0.8589
-32.7192 -17.9634 -9.6644 0.8571
-15.5071 -8.9243 -4.6325 0.9287
-34.0670 -22.4438 -10.5627 0.8449
-36.4491 -27.3017 -11.7912 0.8285
-34.9212 -27.2707 -11.4721 0.8327
-33.4734 -27.2414 -11.1742 0.8367
-55.3090 -48.8377 -19.1042 0.7372
-51.4748 -47.3283 -18.1050 0.7491
-46.0238 -44.0572 -16.4962 0.7685
-41.3739 -41.2322 -15.1238 0.7856
-10.2470 -13.0293 -4.2918 0.9338
-8.6438 -11.4578 -3.7161 0.9424
-8.3267 -11.5119 -3.6786 0.9430
-7.3431 -11.5613 -3.5462 0.9450
-7.0771 -12.2002 -3.6519 0.9434
-8.9168 -16.1106 -4.7676 0.9267
-7.4947 -15.7086 -4.5064 0.9306
-6.5031 -16.0563 -4.4853 0.9309
-4.3160 -12.8304 -3.5049 0.9456
-4.3657 -14.9420 -4.0305 0.9377
-3.9381 -14.5602 -3.9053 0.9396
-2.7956 -13.5264 -3.5762 0.9445
-2.4551 -13.2146 -3.4800 0.9460
-2.1314 -12.9128 -3.3886 0.9474
-1.1609 -11.2047 -2.9166 0.9545
-0.9094 -10.9150 -2.8359 0.9558
-0.2305 -10.1167 -2.6201 0.9591
1.3600 -8.5229 -2.2346 0.9650
1.9322 -7.9405 -2.1159 0.9668
1.6674 -6.2984 -1.6870 0.9734
2.0902 -6.3257 -1.7249 0.9728
3.3275 -6.3905 -1.8655 0.9707
3.6164 -6.0276 -1.8200 0.9714
3.7042 -5.9016 -1.8041 0.9716
3.8605 -5.6339 -1.7683 0.9722
3.9282 -5.4924 -1.7484 0.9725
3.9934 -5.3527 -1.7291 0.9728
4.0563 -5.2148 -1.7106 0.9731
4.1169 -5.0785 -1.6927 0.9733
4.1752 -4.9438 -1.6755 0.9736
4.2314 -4.8107 -1.6589 0.9739
4.3881 -4.4200 -1.6126 0.9746
4.4365 -4.2925 -1.5984 0.9748
4.5278 -4.0414 -1.5714 0.9752
4.6123 -3.7948 -1.5465 0.9756
4.6903 -3.5525 -1.5234 0.9760
4.7621 -3.3143 -1.5022 0.9763
4.7959 -3.1964 -1.4923 0.9765
4.8886 -2.8483 -1.4649 0.9769
4.9168 -2.7337 -1.4566 0.9770
4.9437 -2.6199 -1.4486 0.9771
4.9937 -2.3944 -1.4339 0.9774
5.0168 -2.2825 -1.4271 0.9775
5.0387 -2.1713 -1.4206 0.9776
5.0595 -2.0605 -1.4145 0.9777
5.0790 -1.9504 -1.4087 0.9778
5.0975 -1.8407 -1.4032 0.9779
5.1461 -1.5143 -1.3889 0.9781
5.1601 -1.4063 -1.3848 0.9781
5.1730 -1.2987 -1.3810 0.9782
5.1849 -1.1913 -1.3775 0.9783
4.1495 -0.8659 -1.0975 0.9826
4.0525 -0.7610 -1.0676 0.9831
4.0075 -0.6694 -1.0520 0.9834
3.9803 -0.5829 -1.0416 0.9835
3.9580 -0.4985 -1.0329 0.9837
3.9189 -0.2548 -1.0168 0.9839
3.9152 -0.1756 -1.0147 0.9839
3.9116 -0.0966 -1.0131 0.9840
3.9097 0.0607 -1.0124 0.9840
3.9183 0.2186 -1.0161 0.9839
3.9257 0.2984 -1.0194 0.9839
3.9535 0.4611 -1.0306 0.9837
3.9695 0.5440 -1.0374 0.9836
3.9951 0.6297 -1.0472 0.9834
4.0270 0.7179 -1.0591 0.9832
4.0855 0.8135 -1.0786 0.9829
5.1900 1.1424 -1.3760 0.9783
5.1661 1.3571 -1.3830 0.9782
5.1526 1.4650 -1.3870 0.9781
5.0876 1.9003 -1.4062 0.9778
5.0686 2.0102 -1.4118 0.9777
5.0270 2.2316 -1.4241 0.9775
4.9805 2.4554 -1.4378 0.9773
4.9555 2.5682 -1.4452 0.9772
4.6064 2.7518 -1.3893 0.9781
4.5778 2.8611 -1.3977 0.9779
4.4853 3.1950 -1.4259 0.9775
4.4518 3.3081 -1.4361 0.9773
4.3804 3.5370 -1.4578 0.9770
4.2617 3.8884 -1.4937 0.9764
4.1744 4.1284 -1.5201 0.9760
4.1281 4.2503 -1.5341 0.9758
4.0800 4.3734 -1.5486 0.9756
3.9783 4.6239 -1.5794 0.9751
3.9244 4.7514 -1.5956 0.9749
3.8684 4.8803 -1.6124 0.9746
4.3863 -2.8753 -1.6132 0.9783
4.4478 -2.6662 -1.5950 0.9785
4.4765 -2.5626 -1.5865 0.9786
4.5791 -2.1526 -1.5563 0.9790
4.6016 -2.0513 -1.5496 0.9791
4.6230 -1.9503 -1.5433 0.9792
4.6432 -1.8498 -1.5373 0.9793
4.6803 -1.6497 -1.5264 0.9794
4.7276 -1.3520 -1.5124 0.9796
4.7413 -1.2532 -1.5084 0.9797
4.7653 -1.0566 -1.5013 0.9798
4.1474 -0.8324 -1.3011 0.9825
4.0878 -0.7353 -1.2775 0.9828
4.0533 -0.6452 -1.2624 0.9830
4.0233 -0.5577 -1.2493 0.9831
4.0015 -0.4729 -1.2394 0.9833
3.9844 -0.3898 -1.2314 0.9834
3.9560 -0.2269 -1.2188 0.9836
3.9411 0.0120 -1.2122 0.9836
3.9588 0.2513 -1.2201 0.9835
3.9729 0.3326 -1.2262 0.9835
3.9906 0.4150 -1.2341 0.9833
4.7500 1.1847 -1.5058 0.9797
4.7233 1.3820 -1.5137 0.9796
4.7082 1.4811 -1.5181 0.9796
4.5948 2.0820 -1.5516 0.9791
4.5478 2.2855 -1.5655 0.9789
4.1373 2.7484 -1.5278 0.9794
4.1168 2.8558 -1.5411 0.9793
4.0733 2.9487 -1.5467 0.9792
4.0396 3.0500 -1.5569 0.9790
4.0046 3.1520 -1.5675 0.9789
3.9681 3.2546 -1.5785 0.9788
3.7174 3.8864 -1.6542 0.9777
3.6700 3.9947 -1.6685 0.9776
3.6208 4.1038 -1.6833 0.9774
3.5698 4.2139 -1.6987 0.9772
3.5169 4.3249 -1.7146 0.9769
3.4621 4.4370 -1.7310 0.9767
3.4054 4.5501 -1.7481 0.9765
3.3466 4.6643 -1.7657 0.9763
3.1571 5.0129 -1.8222 0.9755
3.0892 5.1312 -1.8422 0.9752
3.0190 5.2506 -1.8629 0.9750
2.8710 5.4935 -1.9065 0.9744
2.7931 5.6170 -1.9295 0.9741
2.7126 5.7418 -1.9532 0.9738
2.5430 5.9959 -2.0033 0.9731
2.2522 5.9673 -1.9618 0.9737
1.8473 5.9601 -1.9193 0.9742
1.7357 6.0262 -1.9289 0.9741
1.6485 6.1887 -1.9699 0.9736
1.3430 6.0028 -1.8920 0.9746
1.0811 5.9454 -1.8587 0.9750
0.9472 5.8786 -1.8315 0.9754
0.8105 5.7664 -1.7911 0.9759
0.2299 5.8816 -1.8104 0.9757
-0.0068 5.8579 -1.8018 0.9758
-0.1290 6.0590 -1.8641 0.9750
-0.3733 6.0605 -1.8676 0.9749
-0.6319 6.1901 -1.9139 0.9743
-0.7313 5.9721 -1.8506 0.9751
-0.8521 5.9618 -1.8524 0.9751
-1.0785 5.8541 -1.8309 0.9754
-1.7925 6.1696 -1.9761 0.9735
-1.9006 6.0823 -1.9600 0.9737
-2.0395 6.0934 -1.9764 0.9735
-2.5448 5.9618 -1.9938 0.9732
-2.6598 5.8997 -1.9905 0.9733
-2.8038 5.8993 -2.0090 0.9730
-3.0294 6.0568 -2.0830 0.9721
-3.2053 5.8118 -2.0415 0.9726
-3.6305 5.9989 -2.1567 0.9711
-3.8909 6.1465 -2.2375 0.9700
-4.2160 6.1023 -2.2813 0.9694
-4.3762 6.0696 -2.3015 0.9692
-4.9602 6.0711 -2.4113 0.9677
-5.1849 6.0918 -2.4605 0.9671
-5.4599 6.1596 -2.5317 0.9661
-5.7138 6.1905 -2.5912 0.9654
-6.2595 6.2569 -2.7222 0.9636
-6.4042 6.1491 -2.7308 0.9635
-6.7512 6.2261 -2.8248 0.9623
-7.4646 6.3482 -3.0140 0.9598
-8.4166 6.5932 -3.2885 0.9562
-8.6580 6.5057 -3.3310 0.9557
-8.8490 6.3748 -3.3545 0.9554
-9.3925 6.4835 -3.5104 0.9534
-10.0799 6.6627 -3.7164 0.9507
-55.6518 29.2206 -19.3334 0.7687
-59.7232 29.8414 -20.5350 0.7562
-64.1402 30.4520 -21.8387 0.7429
-46.8455 17.7832 -15.4119 0.8108
-15.5072 5.1833 -5.0291 0.9339
-37.6574 11.7507 -12.1334 0.8478
-38.2188 11.0873 -12.2399 0.8466
-46.9723 12.6083 -14.9591 0.8158
-47.0117 11.6105 -14.8943 0.8166
-47.0492 10.6205 -14.8354 0.8172
-47.0848 9.6376 -14.7826 0.8178
-57.2940 9.3443 -17.8552 0.7843
-37.9394 3.0879 -11.7079 0.8527
-95.4299 -3.7686 -29.3750 0.6705
-92.5363 -5.5202 -28.5128 0.6784
-48.8245 -9.9166 -15.3240 0.8118
-44.5007 -9.9743 -14.0271 0.8263
-41.6746 -10.2254 -13.1984 0.8356
-35.7943 -11.1098 -11.5277 0.8548
-33.7984 -12.0006 -11.0315 0.8606
-32.3148 -12.9597 -10.7089 0.8644
-31.8225 -13.5114 -10.6337 0.8653
-31.2487 -14.7780 -10.6321 0.8653
-12.9104 -7.0880 -4.5301 0.9402
-15.2517 -8.7773 -5.4125 0.9290
-28.9815 -18.2683 -10.5373 0.8664
-28.7435 -18.9366 -10.5871 0.8658
-28.4954 -19.6062 -10.6388 0.8652
-29.2514 -21.0056 -11.0766 0.8601
-28.5599 -22.3031 -11.1456 0.8593
-28.0376 -22.8177 -11.1187 0.8596
-23.5125 -20.7614 -9.6477 0.8770
-17.4872 -17.4273 -7.5936 0.9018
-12.2238 -12.6821 -5.4177 0.9289
-10.9049 -12.2647 -5.0478 0.9336
-8.7023 -10.6184 -4.2227 0.9442
-8.3073 -10.5629 -4.1333 0.9453
-8.0817 -10.7126 -4.1274 0.9454
-6.8599 -10.8004 -3.9354 0.9479
-6.6345 -10.9249 -3.9314 0.9479
-6.4916 -11.1908 -3.9793 0.9473
-8.0375 -14.5214 -5.1050 0.9329
-7.0070 -13.9568 -4.8034 0.9367
-6.5291 -13.6844 -4.6636 0.9385
-6.0740 -13.4184 -4.5304 0.9402
-5.6459 -13.1718 -4.4078 0.9418
-4.4740 -12.4650 -4.0734 0.9461
-3.7750 -12.0168 -3.8742 0.9487
-3.1337 -11.5859 -3.6916 0.9510
-2.5441 -11.1709 -3.5239 0.9532
-2.0012 -10.7710 -3.3696 0.9552
-1.7401 -10.5424 -3.2865 0.9563
-1.4871 -10.2945 -3.1992 0.9574
-1.2468 -10.0560 -3.1167 0.9585
-0.7952 -9.5442 -2.9457 0.9607
-0.5840 -9.2566 -2.8528 0.9619
-0.2032 -8.9171 -2.7434 0.9634
-0.0236 -8.8183 -2.7123 0.9638
0.1521 -8.7196 -2.6824 0.9642
1.1397 -6.3228 -1.9761 0.9735
1.3984 -6.2954 -1.9835 0.9734
2.7379 -6.1354 -2.0665 0.9723
2.9308 -5.9164 -2.0308 0.9727
3.1818 -5.5536 -1.9687 0.9736
3.2562 -5.4272 -1.9467 0.9739
3.3280 -5.3023 -1.9255 0.9741
3.3975 -5.1786 -1.9050 0.9744
3.4645 -5.0561 -1.8852 0.9747
3.5293 -4.9348 -1.8661 0.9749
3.5920 -4.8146 -1.8476 0.9752
3.6525 -4.6956 -1.8298 0.9754
3.8217 -4.3449 -1.7798 0.9761
3.8743 -4.2300 -1.7643 0.9763
3.9250 -4.1159 -1.7493 0.9765
3.9739 -4.0029 -1.7349 0.9767
4.1526 -3.5590 -1.6821 0.9774
4.2323 -3.3417 -1.6586 0.9777
4.2699 -3.2341 -1.6475 0.9778
4.3740 -2.9153 -1.6168 0.9782
4.4059 -2.8103 -1.6074 0.9784
4.5204 -2.3956 -1.5736 0.9788
4.5459 -2.2932 -1.5661 0.9789
4.5931 -2.0897 -1.5521 0.9791
4.6150 -1.9887 -1.5457 0.9792
4.6552 -1.7876 -1.5338 0.9793
4.6736 -1.6877 -1.5284 0.9794
4.7222 -1.3896 -1.5140 0.9796
4.7362 -1.2908 -1.5099 0.9797
4.7491 -1.1923 -1.5061 0.9797
4.7610 -1.0939 -1.5026 0.9798
4.2272 -0.8821 -1.3282 0.9821
4.1030 -0.7704 -1.2841 0.9827
4.0651 -0.6790 -1.2677 0.9829
4.0346 -0.5907 -1.2542 0.9831
3.9909 -0.4212 -1.2343 0.9833
3.9446 0.0612 -1.2134 0.9836
3.9505 0.1409 -1.2159 0.9836
4.0018 0.4667 -1.2392 0.9833
4.0210 0.5511 -1.2483 0.9832
4.0520 0.6386 -1.2617 0.9830
4.1264 0.8217 -1.2941 0.9825
4.7661 1.0491 -1.5011 0.9798
4.7422 1.2457 -1.5081 0.9797
4.6984 1.5425 -1.5210 0.9795
4.6637 1.7419 -1.5313 0.9794
4.6447 1.8421 -1.5369 0.9793
4.6245 1.9427 -1.5428 0.9792
4.6032 2.0436 -1.5491 0.9791
4.5807 2.1449 -1.5558 0.9791
4.5061 2.4514 -1.5778 0.9788
4.4500 2.6583 -1.5944 0.9785
4.1489 2.7106 -1.5243 0.9795
4.1180 2.8102 -1.5334 0.9794
4.0526 3.0114 -1.5530 0.9791
4.0181 3.1132 -1.5634 0.9790
3.9821 3.2155 -1.5743 0.9788
3.9448 3.3186 -1.5856 0.9787
3.9060 3.4225 -1.5973 0.9785
3.7802 3.7385 -1.6353 0.9780
3.6882 3.9534 -1.6630 0.9776
3.4832 4.3942 -1.7247 0.9768
3.4272 4.5070 -1.7415 0.9766
4.0540 -2.5423 -1.7112 0.9799
4.0834 -2.4479 -1.7025 0.9800
4.2556 -1.7954 -1.6517 0.9806
4.2756 -1.7033 -1.6458 0.9806
4.3121 -1.5199 -1.6350 0.9808
4.3723 -1.1558 -1.6173 0.9810
4.3847 -1.0652 -1.6136 0.9810
4.3961 -0.9748 -1.6103 0.9811
4.4158 -0.7943 -1.6045 0.9811
4.4241 -0.7042 -1.6020 0.9811
4.4314 -0.6143 -1.5999 0.9812
4.0900 -0.4001 -1.4696 0.9827
4.0749 -0.3160 -1.4616 0.9828
4.0612 -0.2329 -1.4547 0.9829
4.0611 0.1759 -1.4537 0.9829
4.0648 0.2580 -1.4566 0.9828
4.4359 0.5517 -1.5985 0.9812
4.4293 0.6416 -1.6005 0.9812
4.4130 0.8217 -1.6053 0.9811
4.4034 0.9119 -1.6081 0.9811
4.3810 1.0927 -1.6147 0.9810
4.3546 1.2741 -1.6225 0.9809
4.3238 1.4564 -1.6316 0.9808
4.3069 1.5477 -1.6366 0.9807
4.2887 1.6394 -1.6419 0.9807
4.2493 1.8234 -1.6536 0.9805
4.2279 1.9157 -1.6599 0.9805
4.1566 2.1947 -1.6809 0.9802
4.1305 2.2883 -1.6887 0.9801
4.0447 2.5712 -1.7140 0.9798
3.8715 2.6857 -1.6850 0.9802
3.6985 2.7924 -1.6573 0.9805
3.6282 2.9759 -1.6781 0.9803
3.5912 3.0684 -1.6892 0.9801
3.5529 3.1615 -1.7007 0.9800
3.5132 3.2550 -1.7127 0.9799
3.4720 3.3492 -1.7251 0.9797
3.3850 3.5389 -1.7513 0.9794
3.3392 3.6346 -1.7651 0.9793
3.2428 3.8279 -1.7941 0.9789
3.1920 3.9254 -1.8093 0.9787
3.0291 4.2217 -1.8581 0.9782
2.9711 4.3219 -1.8755 0.9780
2.7854 4.6264 -1.9312 0.9773
2.7193 4.7294 -1.9509 0.9771
2.5074 5.0423 -2.0138 0.9764
2.3542 5.2543 -2.0590 0.9758
2.2739 5.3615 -2.0826 0.9756
2.0172 5.6884 -2.1583 0.9747
1.9261 5.7991 -2.1852 0.9744
1.8320 5.9107 -2.2129 0.9741
1.7349 6.0233 -2.2416 0.9737
1.6346 6.1368 -2.2711 0.9734
1.4887 6.0779 -2.2378 0.9738
1.1977 5.9087 -2.1560 0.9747
0.9348 5.8011 -2.1013 0.9753
0.8182 5.8214 -2.1023 0.9753
0.6117 6.1339 -2.2044 0.9742
0.4641 5.8407 -2.0952 0.9754
0.3489 5.8906 -2.1102 0.9752
0.2320 5.9373 -2.1249 0.9751
0.1115 5.8836 -2.1044 0.9753
-0.1285 6.0357 -2.1589 0.9747
-0.2508 6.0562 -2.1676 0.9746
-0.5020 6.1370 -2.2020 0.9742
-0.6099 5.9751 -2.1478 0.9748
-0.8394 5.8734 -2.1217 0.9751
-1.1003 5.9724 -2.1717 0.9745
-1.1971 5.8368 -2.1308 0.9750
-1.3734 6.0727 -2.2265 0.9739
-1.4991 6.0596 -2.2323 0.9738
-1.8820 6.0227 -2.2565 0.9736
-2.1677 6.0682 -2.3043 0.9730
-2.4007 5.9529 -2.2954 0.9731
-2.5298 5.9266 -2.3044 0.9730
-2.8910 6.0829 -2.4085 0.9718
-2.9873 5.9725 -2.3881 0.9720
-3.1402 5.9748 -2.4138 0.9717
-3.2839 5.9544 -2.4317 0.9715
-3.9266 6.2029 -2.6253 0.9693
-4.0065 6.0561 -2.5968 0.9696
-4.3663 6.0557 -2.6698 0.9688
-4.7488 6.0570 -2.7524 0.9678
-6.1152 6.3637 -3.1561 0.9632
-6.3750 6.1211 -3.1605 0.9632
-7.5461 6.1602 -3.4836 0.9595
-7.9834 6.2539 -3.6266 0.9578
-8.3001 6.2367 -3.7127 0.9569
-8.9228 6.1592 -3.8772 0.9550
-9.0786 6.0008 -3.8917 0.9548
-10.8401 5.9728 -4.4260 0.9488
-13.4192 6.0434 -5.2630 0.9394
-30.6679 13.0761 -11.9224 0.8679
-32.1732 12.9596 -12.4037 0.8630
-33.2858 12.6357 -12.7321 0.8596
-15.1875 5.4184 -5.7665 0.9338
-35.5013 11.8665 -13.3859 0.8530
-36.5926 11.4184 -13.7080 0.8497
-35.4803 10.2929 -13.2111 0.8548
-38.7102 10.3906 -14.3331 0.8434
-39.7223 9.8102 -14.6318 0.8405
-31.7581 7.1687 -11.6427 0.8708
-31.7727 6.5033 -11.5977 0.8713
-31.7968 5.8446 -11.5613 0.8717
-34.6100 4.9321 -12.5018 0.8620
-46.0628 2.8179 -16.5032 0.8220
-46.3329 1.9000 -16.5829 0.8212
-46.3491 -1.8304 -16.5877 0.8212
-45.7222 -3.6518 -16.4027 0.8230
-45.2598 -4.5326 -16.2662 0.8243
-43.3148 -6.9969 -15.6905 0.8300
-42.5135 -7.7479 -15.4535 0.8323
-41.6474 -8.4589 -15.1975 0.8348
-40.6417 -9.1094 -14.8944 0.8378
-38.1685 -9.3651 -14.0542 0.8462
-28.7914 -7.6814 -10.6561 0.8811
-33.8010 -10.4911 -12.6563 0.8604
-31.1275 -11.7624 -11.8996 0.8682
-30.2251 -12.1216 -11.6455 0.8708
-29.5543 -12.5484 -11.4820 0.8725
-28.3314 -13.3984 -11.2074 0.8753
-27.3657 -13.6217 -10.9315 0.8782
-24.9743 -13.0646 -10.0792 0.8872
-24.0058 -13.1796 -9.7933 0.8902
-17.5665 -10.5853 -7.3343 0.9166
-17.5035 -11.0331 -7.3991 0.9159
-17.3762 -11.4476 -7.4411 0.9154
-17.5111 -12.0486 -7.6012 0.9137
-18.6620 -13.4012 -8.2161 0.9070
-17.8575 -13.3759 -7.9788 0.9096
-14.9271 -13.1806 -7.1212 0.9189
-14.2527 -13.1046 -6.9238 0.9210
-13.6010 -13.0199 -6.7331 0.9231
-12.4812 -12.4386 -6.3014 0.9279
-11.1693 -12.0645 -5.8794 0.9325
-10.7769 -12.1208 -5.8000 0.9334
-8.4609 -10.3239 -4.7734 0.9449
-7.9180 -10.0677 -4.5804 0.9470
-7.3394 -10.1466 -4.4783 0.9482
-6.6280 -10.9142 -4.5664 0.9472
-6.2169 -11.2320 -4.5909 0.9469
-5.8534 -11.0966 -4.4864 0.9481
-5.5027 -10.9602 -4.3857 0.9492
-5.1640 -10.8233 -4.2885 0.9503
-4.2166 -10.4108 -4.0168 0.9534
-3.6380 -10.1357 -3.8510 0.9553
-3.0979 -9.8613 -3.6964 0.9570
-2.5935 -9.5887 -3.5522 0.9587
-2.3538 -9.4532 -3.4838 0.9595
-2.1221 -9.3183 -3.4176 0.9602
-1.6815 -9.0504 -3.2919 0.9616
-1.0689 -8.6212 -3.1066 0.9638
-0.8739 -8.4347 -3.0324 0.9646
-0.6961 -8.3548 -2.9981 0.9650
-0.0169 -6.2905 -2.2496 0.9736
0.1101 -6.3134 -2.2581 0.9735
0.2372 -6.3145 -2.2597 0.9735
0.3636 -6.2992 -2.2564 0.9736
0.4900 -6.2871 -2.2551 0.9736
0.8445 -7.1234 -2.5652 0.9700
0.9732 -7.0010 -2.5277 0.9704
1.0503 -6.5821 -2.3836 0.9721
1.5712 -6.4573 -2.3766 0.9722
2.3946 -5.6700 -2.2010 0.9742
2.6416 -5.3325 -2.1281 0.9750
2.7937 -5.1118 -2.0832 0.9756
2.8662 -5.0027 -2.0618 0.9758
3.1341 -4.5738 -1.9828 0.9767
3.1958 -4.4684 -1.9645 0.9769
3.3692 -4.1563 -1.9133 0.9775
3.4233 -4.0536 -1.8974 0.9777
3.5263 -3.8500 -1.8670 0.9781
3.5751 -3.7491 -1.8526 0.9782
3.6679 -3.5490 -1.8252 0.9786
3.8349 -3.1552 -1.7759 0.9791
3.8730 -3.0580 -1.7647 0.9793
3.9096 -2.9612 -1.7539 0.9794
3.9448 -2.8650 -1.7435 0.9795
4.0112 -2.6736 -1.7239 0.9797
4.0425 -2.5784 -1.7146 0.9798
4.0724 -2.4837 -1.7058 0.9799
4.1011 -2.3895 -1.6973 0.9800
4.1285 -2.2955 -1.6892 0.9801
4.2035 -2.0155 -1.6671 0.9804
4.2478 -1.8304 -1.6541 0.9805
4.2681 -1.7383 -1.6480 0.9806
4.2873 -1.6464 -1.6424 0.9807
4.3055 -1.5547 -1.6370 0.9807
4.3226 -1.4633 -1.6320 0.9808
4.3386 -1.3721 -1.6272 0.9809
4.3535 -1.2811 -1.6228 0.9809
4.3801 -1.0996 -1.6150 0.9810
4.3919 -1.0091 -1.6115 0.9810
4.4210 -0.7385 -1.6029 0.9811
4.4287 -0.6485 -1.6006 0.9812
4.4354 -0.5586 -1.5987 0.9812
4.0958 -0.4323 -1.4728 0.9827
4.0592 -0.1820 -1.4531 0.9829
4.0592 0.0630 -1.4518 0.9829
4.0605 0.1447 -1.4530 0.9829
4.0743 0.3097 -1.4612 0.9828
4.0903 0.3938 -1.4695 0.9827
4.4381 0.5175 -1.5979 0.9812
4.4319 0.6074 -1.5997 0.9812
4.4246 0.6973 -1.6018 0.9812
4.4164 0.7874 -1.6043 0.9811
4.3969 0.9679 -1.6100 0.9811
4.3856 1.0582 -1.6134 0.9810
4.2771 1.6962 -1.6454 0.9806
4.2361 1.8806 -1.6575 0.9805
4.1907 2.0660 -1.6709 0.9803
4.1406 2.2527 -1.6857 0.9802
4.0256 2.6301 -1.7196 0.9798
3.7112 2.7578 -1.6535 0.9805
3.6772 2.8491 -1.6635 0.9804
3.6420 2.9409 -1.6740 0.9803
3.5677 3.1260 -1.6963 0.9801
3.5284 3.2193 -1.7081 0.9799
3.3568 3.5982 -1.7598 0.9793
3.2115 3.8882 -1.8034 0.9788
3.1061 4.0846 -1.8351 0.9784
3.6754 -2.5164 -1.8230 0.9809
3.7064 -2.4297 -1.8138 0.9810
3.7924 -2.1709 -1.7884 0.9813
3.8187 -2.0851 -1.7807 0.9814
3.8905 -1.8290 -1.7595 0.9816
3.9328 -1.6592 -1.7470 0.9817
3.9523 -1.5746 -1.7412 0.9818
3.9708 -1.4900 -1.7358 0.9818
3.9881 -1.4057 -1.7307 0.9819
4.0196 -1.2375 -1.7214 0.9820
4.0339 -1.1536 -1.7172 0.9820
4.0593 -0.9861 -1.7097 0.9821
4.0897 -0.7357 -1.7007 0.9822
4.1050 -0.5690 -1.6962 0.9822
4.1112 -0.4859 -1.6943 0.9823
4.1207 -0.3196 -1.6916 0.9823
4.1272 0.0957 -1.6896 0.9823
4.1256 0.1786 -1.6901 0.9823
4.1230 0.2618 -1.6909 0.9823
4.1150 0.4280 -1.6932 0.9823
4.0955 0.6776 -1.6990 0.9822
4.0870 0.7610 -1.7015 0.9822
4.0776 0.8444 -1.7043 0.9822
4.0557 1.0115 -1.7108 0.9821
4.0432 1.0952 -1.7144 0.9821
3.9996 1.3471 -1.7273 0.9819
3.9830 1.4313 -1.7322 0.9819
3.9652 1.5157 -1.7374 0.9818
3.9267 1.6850 -1.7488 0.9817
3.8837 1.8548 -1.7615 0.9816
3.8605 1.9401 -1.7683 0.9815
3.7563 2.2831 -1.7991 0.9812
3.7273 2.3694 -1.8077 0.9811
3.6970 2.4560 -1.8166 0.9810
3.6329 2.6298 -1.8355 0.9808
3.5503 2.6805 -1.8207 0.9810
3.2223 2.9855 -1.7979 0.9812
3.1824 3.0698 -1.8097 0.9811
3.1414 3.1546 -1.8221 0.9809
2.9624 3.4970 -1.8758 0.9804
2.9140 3.5834 -1.8903 0.9802
2.7037 3.9329 -1.9533 0.9796
2.6469 4.0211 -1.9703 0.9794
2.5279 4.1988 -2.0059 0.9790
2.4656 4.2883 -2.0245 0.9788
2.4014 4.3781 -2.0437 0.9786
2.1968 4.6499 -2.1048 0.9780
2.0498 4.8331 -2.1486 0.9776
1.9729 4.9250 -2.1714 0.9773
1.8936 5.0172 -2.1948 0.9771
1.7279 5.2026 -2.2437 0.9766
1.6414 5.2958 -2.2692 0.9763
1.4606 5.4834 -2.3225 0.9758
1.3662 5.5777 -2.3503 0.9755
1.0612 5.8364 -2.4279 0.9747
0.9521 5.9088 -2.4496 0.9745
0.8466 6.0234 -2.4895 0.9741
0.4672 5.8802 -2.4142 0.9748
0.3487 5.8871 -2.4137 0.9748
0.2321 5.9390 -2.4326 0.9746
0.1133 5.9823 -2.4489 0.9745
-0.1283 6.0256 -2.4667 0.9743
-0.3796 6.1656 -2.5282 0.9737
-0.9765 5.9723 -2.4768 0.9742
-1.1037 5.9915 -2.4934 0.9740
-1.2401 6.0462 -2.5261 0.9737
-1.3707 6.0609 -2.5432 0.9735
-1.7652 6.0756 -2.5894 0.9730
-1.8846 6.0313 -2.5862 0.9731
-2.0416 6.0996 -2.6325 0.9726
-2.7882 6.1844 -2.7765 0.9711
-3.5342 6.1140 -2.8903 0.9699
-3.6851 6.0891 -2.9130 0.9697
-4.2416 6.1394 -3.0541 0.9683
-4.5532 6.0543 -3.1004 0.9678
-4.7798 6.0966 -3.1706 0.9671
-4.9682 6.0808 -3.2138 0.9666
-5.2044 6.1148 -3.2864 0.9659
-5.7122 6.1887 -3.4469 0.9643
-6.0246 6.2694 -3.5586 0.9631
-6.5345 6.0263 -3.6381 0.9623
-7.0697 6.2616 -3.8652 0.9600
-7.2863 6.1964 -3.9147 0.9595
-7.8511 6.1502 -4.0818 0.9578
-8.6190 6.2091 -4.3476 0.9551
-8.7863 6.0650 -4.3696 0.9549
-9.1209 6.0287 -4.4747 0.9538
-9.7416 6.1612 -4.7175 0.9514
-10.0075 6.0511 -4.7863 0.9507
-11.1329 6.1341 -5.2023 0.9465
-11.8627 6.2286 -5.4837 0.9437
-12.7752 6.0653 -5.7879 0.9407
-17.0198 7.2568 -7.5725 0.9231
-18.5380 7.4671 -8.1795 0.9172
-18.9874 7.2079 -8.3122 0.9160
-21.0622 5.6536 -8.9254 0.9101
-21.4700 5.3024 -9.0511 0.9088
-21.9067 4.9450 -9.1915 0.9075
-22.4098 4.5870 -9.3619 0.9059
-22.9815 4.2242 -9.5633 0.9039
-23.4745 3.8286 -9.7345 0.9023
-23.7294 3.3816 -9.8100 0.9016
-23.9535 2.9233 -9.8763 0.9010
-24.1451 2.4550 -9.9329 0.9004
-24.3032 1.9781 -9.9796 0.9000
-24.5211 1.5001 -10.0546 0.8993
-24.6488 1.0107 -10.0966 0.8989
-24.6737 -0.9744 -10.1062 0.8988
-24.5824 -1.4664 -10.0789 0.8990
-24.0844 -2.9022 -9.9285 0.9005
-23.8476 -3.3617 -9.8567 0.9011
-22.9473 -4.6608 -9.5835 0.9037
-22.5905 -5.0635 -9.4752 0.9048
-21.8050 -5.8175 -9.2364 0.9071
-20.4805 -6.8112 -8.8336 0.9109
-19.4423 -7.3468 -8.5064 0.9141
-17.7153 -7.9459 -7.9463 0.9195
-16.7339 -8.3296 -7.6503 0.9224
-16.2801 -8.5166 -7.5197 0.9237
-15.8245 -8.6879 -7.3884 0.9249
-14.4547 -9.1114 -6.9931 0.9288
-14.0010 -9.2241 -6.8621 0.9301
-12.2262 -9.5477 -6.3489 0.9352
-11.3715 -9.6410 -6.1016 0.9376
-9.7416 -9.7082 -5.6288 0.9423
-9.3529 -9.7036 -5.5159 0.9434
-8.9724 -9.6916 -5.4054 0.9445
-8.6004 -9.6729 -5.2974 0.9456
-8.2368 -9.6480 -5.1920 0.9466
-7.8816 -9.6171 -5.0890 0.9477
-7.5348 -9.5808 -4.9885 0.9487
-7.1965 -9.5392 -4.8905 0.9497
-6.5443 -9.4420 -4.7019 0.9516
-6.2305 -9.3870 -4.6111 0.9525
-5.6268 -9.2657 -4.4367 0.9542
-4.7789 -9.0596 -4.1921 0.9567
-4.5111 -8.9853 -4.1149 0.9575
-4.2505 -8.9086 -4.0398 0.9582
-3.5099 -8.6657 -3.8266 0.9604
-3.0482 -8.4926 -3.6929 0.9618
-2.8269 -8.4038 -3.6288 0.9624
-1.5610 -6.2688 -2.6440 0.9725
-1.1696 -6.2946 -2.6203 0.9727
-0.7797 -6.2889 -2.5936 0.9730
-0.6504 -6.2768 -2.5827 0.9731
-0.5231 -6.2777 -2.5782 0.9731
-0.3976 -6.3005 -2.5838 0.9731
-0.2772 -6.4557 -2.6446 0.9725
0.1184 -6.7884 -2.7787 0.9711
0.2519 -6.7043 -2.7458 0.9714
0.5094 -6.5353 -2.6828 0.9721
0.6335 -6.4504 -2.6527 0.9724
1.1053 -6.1316 -2.5499 0.9734
1.4308 -5.8800 -2.4768 0.9742
1.6320 -5.6987 -2.4261 0.9747
1.7263 -5.5998 -2.3983 0.9750
1.8179 -5.5012 -2.3712 0.9753
1.9068 -5.4031 -2.3450 0.9755
1.9931 -5.3053 -2.3195 0.9758
2.3890 -4.8226 -2.2027 0.9770
2.5999 -4.5378 -2.1404 0.9777
2.7303 -4.3500 -2.1019 0.9780
2.9116 -4.0710 -2.0484 0.9786
2.9684 -3.9788 -2.0317 0.9788
3.0234 -3.8870 -2.0154 0.9789
3.1284 -3.7043 -1.9844 0.9793
3.1785 -3.6136 -1.9696 0.9794
3.2269 -3.5232 -1.9554 0.9796
3.2738 -3.4331 -1.9415 0.9797
3.4463 -3.0760 -1.8906 0.9802
3.5962 -2.7239 -1.8464 0.9807
3.6303 -2.6365 -1.8363 0.9808
3.7542 -2.2897 -1.7997 0.9812
3.7821 -2.2036 -1.7915 0.9813
3.8088 -2.1177 -1.7836 0.9813
3.8343 -2.0321 -1.7761 0.9814
3.8820 -1.8614 -1.7620 0.9816
3.9041 -1.7763 -1.7555 0.9816
3.9251 -1.6914 -1.7493 0.9817
3.9451 -1.6067 -1.7434 0.9818
3.9817 -1.4378 -1.7326 0.9819
4.0286 -1.1855 -1.7187 0.9820
4.0663 -0.9343 -1.7076 0.9821
4.0768 -0.8508 -1.7045 0.9822
4.0864 -0.7673 -1.7017 0.9822
4.0949 -0.6840 -1.6992 0.9822
4.1090 -0.5175 -1.6950 0.9823
4.1228 -0.2681 -1.6909 0.9823
4.1254 -0.1850 -1.6901 0.9823
4.1263 0.1471 -1.6899 0.9823
4.1241 0.2302 -1.6905 0.9823
4.1117 0.4795 -1.6942 0.9823
4.0985 0.6459 -1.6981 0.9822
4.0904 0.7293 -1.7005 0.9822
4.0813 0.8127 -1.7032 0.9822
4.0349 1.1471 -1.7169 0.9820
3.9894 1.3993 -1.7303 0.9819
3.9721 1.4836 -1.7354 0.9818
3.9138 1.7375 -1.7526 0.9817
3.8695 1.9076 -1.7657 0.9815
3.8456 1.9930 -1.7727 0.9815
3.7944 2.1643 -1.7879 0.9813
3.7671 2.2503 -1.7959 0.9812
3.7087 2.4230 -1.8131 0.9810
3.3119 2.7862 -1.7714 0.9815
3.2751 2.8697 -1.7822 0.9814
3.1152 3.2073 -1.8300 0.9809
2.9326 3.5505 -1.8848 0.9803
2.8831 3.6372 -1.8996 0.9801
2.8320 3.7243 -1.9149 0.9800
3.3964 -2.3254 -1.9053 0.9820
3.4265 -2.2461 -1.8965 0.9821
3.4831 -2.0879 -1.8797 0.9823
3.5096 -2.0090 -1.8719 0.9823
3.6048 -1.6946 -1.8438 0.9826
3.6459 -1.5381 -1.8317 0.9827
3.6649 -1.4600 -1.8261 0.9828
3.7156 -1.2262 -1.8111 0.9829
3.7304 -1.1485 -1.8067 0.9829
3.7443 -1.0708 -1.8027 0.9830
3.7571 -0.9932 -1.7989 0.9830
3.8067 -0.6059 -1.7842 0.9832
3.8197 -0.4514 -1.7804 0.9832
3.8247 -0.3742 -1.7789 0.9832
3.8321 -0.2197 -1.7767 0.9832
3.8343 -0.1426 -1.7761 0.9832
3.8356 -0.0654 -1.7757 0.9832
3.8359 0.0117 -1.7756 0.9832
3.8353 0.0889 -1.7758 0.9832
3.8337 0.1661 -1.7763 0.9832
3.8116 0.5521 -1.7828 0.9832
3.7961 0.7068 -1.7874 0.9831
3.7868 0.7842 -1.7901 0.9831
3.7766 0.8616 -1.7931 0.9831
3.7655 0.9391 -1.7964 0.9830
3.7533 1.0168 -1.8000 0.9830
3.7401 1.0943 -1.8039 0.9830
3.7260 1.1721 -1.8080 0.9829
3.6946 1.3277 -1.8173 0.9828
3.6196 1.6401 -1.8395 0.9826
3.5757 1.7969 -1.8524 0.9825
3.5521 1.8755 -1.8594 0.9825
3.4467 2.1910 -1.8905 0.9822
3.3554 2.4289 -1.9174 0.9819
3.3225 2.5086 -1.9271 0.9818
3.1454 2.6875 -1.9150 0.9819
3.0343 2.7000 -1.8801 0.9823
2.9679 2.7499 -1.8729 0.9823
2.9296 2.8259 -1.8842 0.9822
2.8901 2.9023 -1.8959 0.9821
2.7186 3.2092 -1.9469 0.9816
2.6248 3.3639 -1.9750 0.9814
2.5756 3.4414 -1.9897 0.9812
2.3636 3.7530 -2.0531 0.9806
2.3067 3.8314 -2.0701 0.9805
2.2480 3.9098 -2.0876 0.9803
2.0616 4.1459 -2.1432 0.9798
1.9959 4.2248 -2.1628 0.9796
1.7140 4.5412 -2.2469 0.9788
1.5610 4.7000 -2.2924 0.9784
1.3995 4.8587 -2.3405 0.9780
1.3153 4.9379 -2.3654 0.9777
1.1400 5.0957 -2.4171 0.9772
0.9553 5.2532 -2.4715 0.9767
0.8591 5.3319 -2.4999 0.9765
0.6591 5.4886 -2.5588 0.9759
0.5552 5.5666 -2.5895 0.9756
0.4485 5.6443 -2.6210 0.9754
0.2267 5.7990 -2.6864 0.9747
0.1114 5.8759 -2.7204 0.9744
-0.1282 6.0283 -2.7910 0.9738
-0.3804 6.1786 -2.8654 0.9731
-0.4900 5.9904 -2.7821 0.9739
-0.8503 5.9495 -2.7820 0.9739
-1.7649 6.0747 -2.9282 0.9725
-2.1552 6.0333 -2.9656 0.9722
-2.2777 5.9926 -2.9675 0.9721
-2.3694 5.8754 -2.9325 0.9725
-2.5443 5.9607 -3.0000 0.9718
-2.7499 6.0993 -3.0970 0.9709
-2.8429 5.9816 -3.0656 0.9712
-3.8976 6.1570 -3.3730 0.9684
-4.0575 6.1332 -3.4040 0.9681
-4.1946 6.0714 -3.4159 0.9680
-4.3688 6.0591 -3.4577 0.9676
-4.6187 6.1414 -3.5570 0.9667
-4.7475 6.0555 -3.5618 0.9667
-5.1945 6.1030 -3.7097 0.9653
-5.4168 6.1109 -3.7800 0.9646
-5.7807 6.2630 -3.9452 0.9631
-5.9328 6.1739 -3.9634 0.9630
-6.3489 6.0960 -4.0742 0.9619
-7.0228 6.2200 -4.3425 0.9595
-7.3035 6.2111 -4.4379 0.9586
-7.5427 6.1574 -4.5070 0.9580
-8.2977 6.2349 -4.8044 0.9553
-8.7906 6.0680 -4.9443 0.9540
-11.4985 6.3355 -6.0769 0.9438
-12.6590 6.0102 -6.4866 0.9401
-13.2122 5.6333 -6.6485 0.9387
-13.4787 5.4292 -6.7262 0.9380
-13.9257 4.9682 -6.8439 0.9369
-15.9936 2.9398 -7.5272 0.9308
-16.0848 2.6233 -7.5438 0.9307
-16.1649 2.3036 -7.5581 0.9306
-16.2648 1.9850 -7.5846 0.9303
-16.3648 1.6639 -7.6141 0.9301
-16.4471 1.3386 -7.6383 0.9298
-16.5112 1.0101 -7.6571 0.9297
-16.5837 0.3462 -7.6780 0.9295
-16.5813 -0.3211 -7.6767 0.9295
-16.2504 -1.9582 -7.5765 0.9304
-16.1648 -2.2787 -7.5564 0.9306
-15.5042 -4.1365 -7.4277 0.9317
-15.3495 -4.4277 -7.3948 0.9320
-14.5389 -5.4940 -7.1943 0.9338
-13.9630 -5.9285 -7.0217 0.9353
-13.6117 -6.1052 -6.9054 0.9364
-13.2323 -6.2578 -6.7754 0.9375
-12.4771 -6.5271 -6.5180 0.9398
-11.3888 -6.8627 -6.1548 0.9431
-11.0545 -6.9681 -6.0487 0.9440
-9.4051 -6.1962 -5.2133 0.9516
-9.0109 -6.1998 -5.0629 0.9529
-8.3102 -6.2246 -4.8061 0.9553
-7.9870 -6.2373 -4.6908 0.9563
-7.6624 -6.2358 -4.5729 0.9574
-7.0694 -6.2422 -4.3654 0.9593
-6.7840 -6.2375 -4.2658 0.9602
-6.5122 -6.2339 -4.1729 0.9610
-6.0049 -6.2300 -4.0053 0.9626
-4.9060 -6.2380 -3.6735 0.9656
-4.7075 -6.2399 -3.6181 0.9661
-4.5166 -6.2443 -3.5672 0.9666
-4.3315 -6.2493 -3.5196 0.9670
-4.1517 -6.2550 -3.4751 0.9675
-3.9770 -6.2615 -3.4335 0.9678
-3.8067 -6.2686 -3.3947 0.9682
-3.4762 -6.2805 -3.3227 0.9689
-3.1546 -6.2834 -3.2545 0.9695
-2.9971 -6.2814 -3.2215 0.9698
-2.8410 -6.2762 -3.1890 0.9701
-2.2476 -6.2619 -3.0796 0.9711
-2.0654 -7.0688 -3.4088 0.9681
-1.2568 -6.7643 -3.1847 0.9701
-0.8158 -6.5796 -3.0689 0.9712
-0.6751 -6.5161 -3.0323 0.9715
-0.5375 -6.4521 -2.9969 0.9719
-0.4033 -6.3907 -2.9641 0.9722
0.1072 -6.1428 -2.8438 0.9733
0.2283 -6.0761 -2.8145 0.9736
0.4628 -5.9369 -2.7564 0.9741
0.8995 -5.6370 -2.6423 0.9752
1.0012 -5.5540 -2.6123 0.9754
1.1002 -5.4707 -2.5830 0.9757
1.1967 -5.3875 -2.5546 0.9760
1.3822 -5.2207 -2.4998 0.9765
1.4712 -5.1372 -2.4735 0.9767
1.6424 -4.9703 -2.4230 0.9772
1.8046 -4.8034 -2.3751 0.9776
1.8824 -4.7201 -2.3522 0.9779
1.9582 -4.6368 -2.3298 0.9781
2.0319 -4.5535 -2.3081 0.9783
2.1036 -4.4703 -2.2869 0.9785
2.2412 -4.3043 -2.2463 0.9788
2.3071 -4.2214 -2.2268 0.9790
2.3712 -4.1388 -2.2079 0.9792
2.4335 -4.0561 -2.1895 0.9794
2.6656 -3.7271 -2.1210 0.9800
2.8225 -3.4818 -2.0747 0.9804
2.9194 -3.3191 -2.0461 0.9807
2.9657 -3.2380 -2.0325 0.9808
3.0105 -3.1570 -2.0192 0.9810
3.0539 -3.0761 -2.0064 0.9811
3.1758 -2.8346 -1.9704 0.9814
3.2138 -2.7544 -1.9592 0.9815
3.2859 -2.5945 -1.9379 0.9817
3.3200 -2.5148 -1.9279 0.9818
3.3529 -2.4351 -1.9181 0.9819
3.4152 -2.2763 -1.8998 0.9821
3.4727 -2.1180 -1.8828 0.9822
3.5740 -1.8029 -1.8529 0.9825
3.6180 -1.6461 -1.8399 0.9826
3.6761 -1.4117 -1.8228 0.9828
3.7096 -1.2558 -1.8129 0.9829
3.7249 -1.1780 -1.8084 0.9829
3.7391 -1.1003 -1.8042 0.9830
3.7646 -0.9451 -1.7967 0.9830
3.7954 -0.7127 -1.7875 0.9831
3.8037 -0.6354 -1.7851 0.9831
3.8275 -0.3263 -1.7781 0.9832
3.8352 -0.0948 -1.7758 0.9832
3.8344 0.1366 -1.7760 0.9832
3.8323 0.2138 -1.7767 0.9832
3.8291 0.2911 -1.7776 0.9832
3.8251 0.3682 -1.7788 0.9832
3.8201 0.4454 -1.7803 0.9832
3.8142 0.5227 -1.7820 0.9832
3.8072 0.6000 -1.7841 0.9832
3.7993 0.6773 -1.7864 0.9831
3.7905 0.7548 -1.7890 0.9831
3.7806 0.8321 -1.7919 0.9831
3.7699 0.9096 -1.7951 0.9831
3.7315 1.1425 -1.8064 0.9829
