ply
format ascii 1.0
element vertex 1515
property float32 x
property float32 y
property float32 z
property float32 I
end_header
5.5705 -0.6782 -0.1580 0.9778
4.8940 -0.3967 -0.1383 0.9805
4.8871 -0.1988 -0.1377 0.9806
4.8864 -0.0020 -0.1376 0.9806
4.8868 0.0964 -0.1376 0.9806
4.8871 0.1948 -0.1377 0.9806
4.8937 0.3928 -0.1382 0.9805
6.1956 0.8760 -0.1762 0.9753
8.9837 1.4552 -0.2563 0.9642
8.9809 1.6408 -0.2571 0.9641
8.9779 1.8277 -0.2580 0.9640
8.9744 2.0158 -0.2590 0.9639
8.9665 2.3968 -0.2613 0.9635
8.9570 2.7849 -0.2641 0.9632
8.9517 2.9821 -0.2657 0.9629
8.9461 3.1816 -0.2674 0.9627
8.9335 3.5882 -0.2711 0.9622
8.9191 4.0064 -0.2753 0.9616
8.9112 4.2205 -0.2776 0.9613
8.9029 4.4380 -0.2801 0.9610
8.8940 4.6593 -0.2827 0.9606
8.8846 4.8847 -0.2855 0.9602
8.8747 5.1145 -0.2884 0.9598
8.8642 5.3488 -0.2915 0.9594
8.7531 5.5251 -0.2915 0.9594
8.3471 5.5069 -0.2816 0.9608
5.8591 5.3949 -0.2243 0.9686
5.1620 5.3635 -0.2096 0.9707
4.7448 5.3448 -0.2013 0.9718
4.5483 5.3359 -0.1974 0.9723
4.0001 5.3111 -0.1872 0.9737
3.8295 5.3035 -0.1842 0.9742
3.5040 5.2887 -0.1787 0.9749
3.1974 5.2752 -0.1737 0.9756
3.0501 5.2686 -0.1714 0.9759
2.9066 5.2621 -0.1693 0.9762
2.4961 5.2436 -0.1635 0.9770
2.3652 5.2377 -0.1618 0.9773
2.2369 5.2319 -0.1602 0.9775
2.1111 5.2262 -0.1587 0.9777
1.9877 5.2206 -0.1573 0.9779
1.6295 5.2045 -0.1536 0.9784
1.2866 5.1889 -0.1505 0.9788
1.1752 5.1839 -0.1497 0.9790
0.9887 5.3523 -0.1533 0.9785
1.0677 10.4130 -0.2948 0.9590
0.8610 10.4686 -0.2958 0.9588
0.6526 10.5245 -0.2969 0.9587
0.2307 10.6371 -0.2996 0.9583
-0.8645 10.9301 -0.3087 0.9571
-1.0924 10.9916 -0.3110 0.9568
-1.5587 11.1173 -0.3161 0.9561
-1.7979 11.1815 -0.3189 0.9557
-2.0413 11.2467 -0.3219 0.9553
-2.2895 11.3130 -0.3250 0.9549
-2.5426 11.3807 -0.3284 0.9544
-2.8009 11.4496 -0.3319 0.9539
-3.0651 11.5199 -0.3357 0.9534
-3.8960 11.7402 -0.3483 0.9517
-4.1874 11.8173 -0.3530 0.9511
-4.4867 11.8960 -0.3580 0.9504
-4.7931 11.9730 -0.3631 0.9497
-5.1055 12.0451 -0.3684 0.9490
-5.4272 12.1191 -0.3739 0.9483
-5.7604 12.1990 -0.3799 0.9474
-7.8320 13.0131 -0.4277 0.9410
-8.3111 13.2005 -0.4392 0.9395
-11.8967 14.6323 -0.5310 0.9273
-12.6098 14.8870 -0.5494 0.9249
-14.9530 15.6340 -0.6092 0.9171
-15.8401 15.9079 -0.6321 0.9141
-71.3514 43.3588 -2.3510 0.7160
-76.2761 38.3198 -2.4036 0.7106
-69.6597 28.2324 -2.1165 0.7402
4.2280 -36.0081 -1.0209 0.8650
4.9642 -36.0068 -1.0235 0.8646
6.0706 -38.3154 -1.0923 0.8562
6.3930 -35.6882 -1.0209 0.8650
7.0106 -28.9455 -0.8386 0.8877
4.1643 -15.7969 -0.4600 0.9367
4.5009 -15.7787 -0.4620 0.9365
4.8406 -15.7603 -0.4642 0.9362
6.2372 -15.6845 -0.4753 0.9347
6.5974 -15.6649 -0.4786 0.9342
7.6748 -15.5303 -0.4878 0.9330
8.2149 -15.0647 -0.4832 0.9336
8.2635 -14.4541 -0.4688 0.9355
8.3088 -13.8775 -0.4555 0.9373
8.3511 -13.3319 -0.4430 0.9390
8.4624 -11.8543 -0.4101 0.9434
8.5818 -10.1789 -0.3749 0.9481
8.6074 -9.8020 -0.3673 0.9491
-1.4271 -36.1063 -2.6495 0.8651
-0.6996 -36.0939 -2.6470 0.8652
0.0287 -38.4645 -2.8203 0.8570
0.7633 -36.5766 -2.6825 0.8635
1.3950 -34.0133 -2.4960 0.8724
2.4258 -29.7941 -2.1918 0.8870
2.8515 -28.0347 -2.0662 0.8931
1.9362 -15.8589 -1.1715 0.9379
2.2584 -15.8415 -1.1733 0.9378
2.9066 -15.8063 -1.1784 0.9376
4.6302 -20.5030 -1.5412 0.9192
4.5569 -15.7003 -1.1987 0.9365
4.8868 -15.6532 -1.2024 0.9363
5.7964 -15.2615 -1.1970 0.9366
5.9185 -14.6858 -1.1610 0.9385
6.0326 -14.1412 -1.1273 0.9402
6.1394 -13.6252 -1.0958 0.9418
6.2394 -13.1350 -1.0662 0.9433
6.3333 -12.6685 -1.0385 0.9448
6.4217 -12.2238 -1.0124 0.9461
6.6570 -11.0034 -0.9430 0.9497
6.8553 -9.9252 -0.8845 0.9528
6.9144 -9.5921 -0.8670 0.9537
6.9704 -9.2706 -0.8505 0.9545
7.0741 -8.6598 -0.8199 0.9561
7.2518 -7.5470 -0.7674 0.9589
7.2909 -7.2884 -0.7559 0.9595
7.4887 -5.8661 -0.6975 0.9626
7.5163 -5.6473 -0.6893 0.9630
7.5914 -5.0170 -0.6672 0.9642
7.6139 -4.8147 -0.6605 0.9645
7.6558 -4.4202 -0.6482 0.9652
7.7107 -3.8516 -0.6320 0.9660
7.7271 -3.6673 -0.6271 0.9663
7.7709 -3.1286 -0.6142 0.9670
7.7958 -2.7797 -0.6069 0.9673
7.8274 -2.2689 -0.5975 0.9678
7.8447 -1.9354 -0.5924 0.9681
7.8591 -1.6066 -0.5882 0.9683
7.8709 -1.2814 -0.5847 0.9685
4.9854 -0.7090 -0.3692 0.9800
4.6612 -0.5675 -0.3443 0.9813
4.6213 -0.1880 -0.3391 0.9816
4.6212 -0.0019 -0.3388 0.9816
4.6213 0.0911 -0.3389 0.9816
4.6223 0.2775 -0.3395 0.9816
4.6192 0.4645 -0.3404 0.9816
4.6581 0.5633 -0.3440 0.9814
4.9671 0.7023 -0.3678 0.9801
5.4358 0.8805 -0.4038 0.9782
7.8450 1.9287 -0.5923 0.9681
7.8367 2.0948 -0.5948 0.9680
7.8180 2.4308 -0.6003 0.9677
7.8075 2.6010 -0.6034 0.9675
7.7963 2.7727 -0.6067 0.9674
7.7577 3.2988 -0.6181 0.9668
7.7432 3.4782 -0.6224 0.9665
7.7278 3.6599 -0.6269 0.9663
7.7114 3.8440 -0.6318 0.9660
7.6149 4.8066 -0.6603 0.9645
7.5436 5.4245 -0.6813 0.9634
6.9550 5.4389 -0.6474 0.9652
6.6575 5.4256 -0.6297 0.9661
6.1082 5.4012 -0.5979 0.9678
5.3792 5.3688 -0.5572 0.9700
4.9449 5.3494 -0.5341 0.9712
4.5445 5.3314 -0.5137 0.9723
3.9970 5.3071 -0.4871 0.9737
3.8266 5.2994 -0.4793 0.9741
3.0479 5.2648 -0.4460 0.9759
2.9045 5.2584 -0.4405 0.9762
2.7646 5.2521 -0.4352 0.9765
2.6279 5.2460 -0.4302 0.9767
2.4943 5.2400 -0.4255 0.9770
2.2355 5.2284 -0.4169 0.9775
2.1097 5.2228 -0.4130 0.9777
1.7458 5.2064 -0.4026 0.9782
1.6284 5.2011 -0.3996 0.9784
1.3985 5.1908 -0.3942 0.9787
0.9553 5.1708 -0.3856 0.9791
0.8472 5.1660 -0.3838 0.9792
0.7401 5.1611 -0.3823 0.9793
0.5282 5.1516 -0.3797 0.9794
0.4233 5.1468 -0.3787 0.9795
0.3189 5.1421 -0.3778 0.9795
-0.6136 10.4223 -0.7655 0.9590
-1.4928 10.6463 -0.7883 0.9578
-2.1899 10.8210 -0.8095 0.9567
-2.4309 10.8808 -0.8175 0.9563
-2.9276 11.0031 -0.8349 0.9554
-3.4464 11.1295 -0.8543 0.9543
-3.7148 11.1942 -0.8648 0.9538
-4.2723 11.3274 -0.8877 0.9526
-5.1578 11.5177 -0.9253 0.9506
-5.7886 11.6461 -0.9536 0.9492
-6.4594 11.7810 -0.9851 0.9475
-8.8257 12.3032 -1.1102 0.9411
-10.3669 12.7507 -1.2049 0.9362
-11.5471 13.0891 -1.2798 0.9324
-12.1929 13.2728 -1.3215 0.9303
-12.8774 13.4638 -1.3661 0.9280
-16.0485 14.2803 -1.5751 0.9174
-19.4979 15.3457 -1.8193 0.9053
-20.9393 15.8083 -1.9237 0.9001
-22.2060 16.0735 -2.0100 0.8959
-76.4155 38.3897 -6.2703 0.7096
-68.0845 27.5939 -5.3865 0.7448
-30.7773 -16.8291 -2.5720 0.8688
-1.5946 -36.1299 -2.6517 0.8650
-0.8662 -36.1089 -2.6483 0.8651
0.6164 -37.8948 -2.7789 0.8590
1.8251 -32.2596 -2.3691 0.8785
2.3209 -30.2261 -2.2228 0.8855
2.7585 -28.4200 -2.0936 0.8918
2.8322 -15.8103 -1.1777 0.9376
3.1582 -15.7926 -1.1809 0.9374
3.4862 -15.7747 -1.1846 0.9373
4.1488 -15.7385 -1.1934 0.9368
5.1426 -15.6166 -1.2055 0.9362
5.4765 -15.5687 -1.2101 0.9360
5.7672 -15.3980 -1.2056 0.9362
6.2171 -13.2450 -1.0728 0.9430
6.4019 -12.3237 -1.0183 0.9458
6.5656 -11.4842 -0.9699 0.9483
6.6405 -11.0911 -0.9478 0.9495
6.7112 -10.7139 -0.9270 0.9506
6.7780 -10.3517 -0.9072 0.9516
6.8413 -10.0030 -0.8886 0.9526
6.9012 -9.6672 -0.8709 0.9535
6.9579 -9.3432 -0.8542 0.9544
7.1572 -8.1505 -0.7953 0.9574
-63.9142 -42.3775 -9.1093 0.7343
-54.1644 -42.5582 -8.1825 0.7577
-52.2475 -44.5661 -8.1574 0.7583
-56.7547 -50.4187 -9.0177 0.7365
-6.6017 -36.2034 -4.3714 0.8622
-4.1710 -34.5924 -4.1388 0.8691
-2.4314 -30.4235 -3.6254 0.8843
-0.3085 -15.9212 -1.8916 0.9379
0.6509 -15.8701 -1.8867 0.9380
0.9701 -15.8530 -1.8866 0.9380
1.2894 -15.8358 -1.8873 0.9380
1.6090 -15.8185 -1.8887 0.9380
1.9292 -15.8012 -1.8909 0.9379
2.8827 -15.6762 -1.8933 0.9378
3.4849 -15.4315 -1.8792 0.9383
3.8608 -14.3768 -1.7683 0.9418
4.3420 -12.9838 -1.6262 0.9463
4.6177 -12.1581 -1.5449 0.9490
4.7440 -11.7716 -1.5076 0.9502
4.8635 -11.4007 -1.4723 0.9513
5.0836 -10.7018 -1.4074 0.9534
5.1851 -10.3718 -1.3774 0.9544
5.3729 -9.7460 -1.3220 0.9562
5.4599 -9.4489 -1.2963 0.9570
5.7675 -8.3503 -1.2055 0.9599
5.8356 -8.0954 -1.1854 0.9606
5.9004 -7.8476 -1.1663 0.9612
5.9623 -7.6062 -1.1480 0.9618
6.1829 -6.6994 -1.0829 0.9639
6.2319 -6.4857 -1.0684 0.9644
6.3236 -6.0720 -1.0414 0.9653
6.3663 -5.8715 -1.0288 0.9657
6.4072 -5.6748 -1.0167 0.9661
6.4462 -5.4820 -1.0052 0.9665
6.4835 -5.2926 -0.9942 0.9668
6.5191 -5.1066 -0.9837 0.9672
6.5855 -4.7437 -0.9641 0.9678
6.6164 -4.5666 -0.9550 0.9681
6.6458 -4.3922 -0.9463 0.9684
6.7007 -4.0507 -0.9301 0.9690
6.7261 -3.8835 -0.9226 0.9692
6.7950 -3.3941 -0.9022 0.9699
6.8156 -3.2347 -0.8962 0.9701
6.8351 -3.0770 -0.8904 0.9703
6.8710 -2.7662 -0.8798 0.9706
6.8872 -2.6131 -0.8750 0.9708
6.9303 -2.1610 -0.8623 0.9712
6.9543 -1.8650 -0.8552 0.9714
6.9648 -1.7184 -0.8521 0.9715
6.9833 -1.4275 -0.8467 0.9717
4.7525 -0.8723 -0.5740 0.9807
4.3677 -0.3541 -0.5205 0.9825
4.3687 -0.0018 -0.5189 0.9826
4.4280 0.6260 -0.5312 0.9821
6.9748 1.5667 -0.8492 0.9716
6.8879 2.6069 -0.8748 0.9708
6.8716 2.7601 -0.8796 0.9706
6.8543 2.9146 -0.8847 0.9704
6.8359 3.0707 -0.8902 0.9703
6.8164 3.2284 -0.8959 0.9701
6.7959 3.3877 -0.9020 0.9699
6.7512 3.7118 -0.9152 0.9694
6.7271 3.8768 -0.9223 0.9692
6.7017 4.0440 -0.9298 0.9690
6.6750 4.2134 -0.9377 0.9687
6.6470 4.3852 -0.9459 0.9684
6.6176 4.5595 -0.9546 0.9681
6.5868 4.7365 -0.9637 0.9678
6.5544 4.9162 -0.9733 0.9675
6.5205 5.0991 -0.9833 0.9672
6.3694 5.4077 -0.9925 0.9669
5.8481 5.3848 -0.9443 0.9685
5.6058 5.3741 -0.9225 0.9692
5.3745 5.3639 -0.9020 0.9699
4.7368 5.3357 -0.8475 0.9717
4.1698 5.3107 -0.8021 0.9732
3.8236 5.2953 -0.7758 0.9740
3.3437 5.2742 -0.7418 0.9752
3.0457 5.2610 -0.7221 0.9758
2.9024 5.2546 -0.7131 0.9761
2.7627 5.2484 -0.7045 0.9764
2.3619 5.2306 -0.6817 0.9771
2.2339 5.2248 -0.6750 0.9774
1.9851 5.2137 -0.6627 0.9778
1.8639 5.2084 -0.6571 0.9780
1.7447 5.2030 -0.6519 0.9781
1.3976 5.1875 -0.6382 0.9786
0.9546 5.1676 -0.6242 0.9791
0.8467 5.1627 -0.6215 0.9791
0.7396 5.1579 -0.6190 0.9792
0.5279 5.1484 -0.6148 0.9794
0.4230 5.1437 -0.6131 0.9794
0.0080 5.1249 -0.6088 0.9796
-0.1979 5.1155 -0.6081 0.9796
-0.3009 5.1109 -0.6082 0.9796
-0.4039 5.1062 -0.6084 0.9796
-0.6187 5.1662 -0.6181 0.9793
-1.6502 10.2626 -1.2347 0.9590
-1.8721 10.3146 -1.2452 0.9587
-2.0980 10.3671 -1.2564 0.9583
-2.3279 10.4201 -1.2683 0.9579
-3.0448 10.5819 -1.3080 0.9566
-3.2938 10.6371 -1.3227 0.9561
-4.0762 10.8076 -1.3721 0.9545
-4.9124 10.9696 -1.4277 0.9527
-5.5052 11.0758 -1.4692 0.9514
-6.1332 11.1861 -1.5154 0.9499
-6.4620 11.2430 -1.5404 0.9491
-7.5164 11.4220 -1.6242 0.9464
-7.8971 11.4902 -1.6562 0.9454
-8.3012 11.5721 -1.6917 0.9442
-9.5422 11.7363 -1.7968 0.9409
-9.9850 11.7883 -1.8351 0.9397
-10.9289 11.8969 -1.9190 0.9370
-11.9617 12.0130 -2.0138 0.9340
-12.5167 12.0742 -2.0658 0.9323
-13.1222 12.1583 -2.1250 0.9305
-13.8395 12.3147 -2.2005 0.9281
-14.6078 12.4808 -2.2823 0.9255
-19.8096 13.7400 -2.8637 0.9075
-21.1385 14.0403 -3.0144 0.9028
-23.6272 14.3578 -3.2841 0.8946
-77.3186 38.8435 -10.2783 0.7057
-47.2910 19.1666 -6.0613 0.8142
-53.0846 -43.0588 -8.1193 0.7593
-56.5813 -49.8005 -8.9536 0.7381
-7.5404 -36.2481 -4.3980 0.8615
-0.7036 -15.9420 -1.8955 0.9377
-0.3820 -15.9250 -1.8922 0.9378
-0.0614 -15.9080 -1.8897 0.9379
0.5779 -15.8740 -1.8869 0.9380
0.8971 -15.8569 -1.8866 0.9380
1.2162 -15.8397 -1.8871 0.9380
1.5358 -15.8225 -1.8883 0.9380
2.8100 -15.6865 -1.8930 0.9378
3.4387 -15.5597 -1.8929 0.9378
3.8203 -14.4918 -1.7802 0.9414
4.1556 -13.5299 -1.6813 0.9446
4.8367 -11.4843 -1.4802 0.9510
4.9512 -11.1248 -1.4464 0.9521
5.1624 -10.4462 -1.3841 0.9541
5.4404 -9.5159 -1.3021 0.9568
5.6794 -8.6737 -1.2315 0.9591
5.8858 -7.9036 -1.1706 0.9611
6.0081 -7.4243 -1.1345 0.9623
6.1194 -6.9688 -1.1016 0.9633
-88.2448 -42.0427 -16.1030 0.6728
-76.4020 -46.3430 -14.7209 0.6961
-54.7146 -50.6126 -12.2787 0.7392
-13.7474 -36.3596 -6.4037 0.8542
-12.7295 -38.2546 -6.6418 0.8492
-7.3464 -29.9241 -5.0761 0.8826
-6.3534 -28.3300 -4.7830 0.8890
-2.5829 -15.9805 -2.6668 0.9365
-1.9228 -15.9468 -2.6461 0.9370
-1.2718 -15.9131 -2.6299 0.9373
-0.6276 -15.8795 -2.6180 0.9376
0.3292 -15.7702 -2.5985 0.9381
1.5120 -14.8652 -2.4615 0.9412
1.7574 -14.3952 -2.3891 0.9429
2.2059 -13.5199 -2.2567 0.9460
2.4110 -13.1113 -2.1962 0.9474
3.1255 -11.6387 -1.9853 0.9523
3.4292 -10.9842 -1.8957 0.9544
3.7033 -10.3748 -1.8148 0.9563
4.3821 -8.7655 -1.6144 0.9611
4.4778 -8.5236 -1.5862 0.9617
4.5693 -8.2883 -1.5592 0.9624
4.7404 -7.8355 -1.5086 0.9636
5.0406 -6.9926 -1.4200 0.9657
5.2341 -6.4073 -1.3630 0.9670
5.2932 -6.2201 -1.3455 0.9674
5.4563 -5.6785 -1.2973 0.9686
5.5062 -5.5044 -1.2826 0.9689
5.5541 -5.3331 -1.2685 0.9693
5.5999 -5.1646 -1.2550 0.9696
5.6859 -4.8353 -1.2296 0.9702
5.7261 -4.6743 -1.2177 0.9705
5.8016 -4.3589 -1.1954 0.9710
5.8369 -4.2044 -1.1850 0.9713
5.8705 -4.0518 -1.1751 0.9715
5.9028 -3.9010 -1.1656 0.9717
6.0174 -3.3147 -1.1317 0.9725
6.0896 -2.8901 -1.1104 0.9730
6.1112 -2.7511 -1.1041 0.9732
6.1509 -2.4764 -1.0923 0.9735
6.1691 -2.3406 -1.0870 0.9736
6.2021 -2.0717 -1.0772 0.9738
6.2309 -1.8062 -1.0687 0.9740
6.2438 -1.6745 -1.0649 0.9741
6.2556 -1.5434 -1.0614 0.9742
6.2665 -1.4129 -1.0582 0.9743
4.4353 -0.9066 -0.7458 0.9818
4.2726 -0.7842 -0.7156 0.9825
4.1840 -0.6812 -0.6983 0.9830
4.1428 -0.5892 -0.6893 0.9832
4.1276 -0.5025 -0.6850 0.9833
4.1259 -0.4182 -0.6832 0.9833
4.1301 -0.2513 -0.6817 0.9834
4.1292 -0.0848 -0.6804 0.9834
4.1288 -0.0016 -0.6802 0.9834
4.1291 0.0814 -0.6804 0.9834
4.1297 0.1646 -0.6809 0.9834
4.1286 0.3314 -0.6823 0.9833
4.1259 0.4148 -0.6831 0.9833
4.1272 0.4991 -0.6849 0.9833
4.1408 0.5855 -0.6889 0.9832
4.1829 0.6776 -0.6981 0.9830
6.2443 1.6691 -1.0648 0.9741
6.2315 1.8008 -1.0686 0.9740
6.2176 1.9332 -1.0726 0.9739
6.1868 2.2003 -1.0817 0.9737
6.0905 2.8845 -1.1102 0.9731
6.0677 3.0247 -1.1169 0.9729
5.9640 3.5987 -1.1475 0.9722
5.9347 3.7461 -1.1562 0.9720
5.8719 4.0457 -1.1747 0.9715
5.8030 4.3527 -1.1950 0.9710
5.7662 4.5092 -1.2059 0.9708
5.7277 4.6679 -1.2172 0.9705
5.3696 5.3590 -1.2497 0.9697
5.1483 5.3494 -1.2231 0.9704
4.9363 5.3400 -1.1980 0.9709
4.7328 5.3312 -1.1744 0.9715
4.5370 5.3227 -1.1522 0.9720
3.9907 5.2987 -1.0928 0.9735
3.6559 5.2839 -1.0585 0.9743
3.3412 5.2703 -1.0280 0.9750
3.1903 5.2636 -1.0140 0.9754
2.9003 5.2509 -0.9882 0.9760
2.7607 5.2447 -0.9764 0.9763
2.3604 5.2270 -0.9448 0.9770
2.1069 5.2157 -0.9267 0.9775
1.9837 5.2103 -0.9184 0.9777
1.8627 5.2049 -0.9107 0.9778
1.7435 5.1996 -0.9034 0.9780
1.1729 5.1741 -0.8740 0.9787
0.9540 5.1643 -0.8652 0.9789
0.8462 5.1595 -0.8613 0.9790
0.5276 5.1452 -0.8521 0.9793
0.4228 5.1405 -0.8497 0.9793
0.3185 5.1358 -0.8477 0.9794
0.2146 5.1311 -0.8460 0.9794
0.1112 5.1264 -0.8447 0.9794
-0.4036 5.1030 -0.8433 0.9795
-0.5067 5.0984 -0.8441 0.9794
-0.6100 5.0938 -0.8451 0.9794
-0.7136 5.0891 -0.8466 0.9794
-0.9220 5.0795 -0.8505 0.9793
-1.0270 5.0748 -0.8530 0.9792
-1.4545 5.0552 -0.8666 0.9789
-3.8955 10.3284 -1.8185 0.9562
-4.1547 10.3783 -1.8416 0.9557
-4.9626 10.5097 -1.9147 0.9540
-5.2456 10.5534 -1.9415 0.9533
-5.5363 10.5979 -1.9698 0.9527
-5.8354 10.6427 -1.9995 0.9520
-6.1432 10.6884 -2.0309 0.9513
-6.4607 10.7346 -2.0640 0.9505
-7.1321 10.8379 -2.1374 0.9488
-8.6407 11.0757 -2.3142 0.9446
-9.0342 11.1116 -2.3592 0.9436
-9.4428 11.1480 -2.4068 0.9425
-9.8675 11.1852 -2.4572 0.9413
-10.3098 11.2230 -2.5106 0.9401
-10.7710 11.2615 -2.5672 0.9388
-12.3244 11.4191 -2.7679 0.9342
-14.1044 11.5679 -3.0051 0.9287
-15.4642 11.6749 -3.1921 0.9245
-18.9152 12.0222 -3.6922 0.9131
-21.2393 12.3285 -4.0457 0.9052
-22.4004 12.4066 -4.2184 0.9014
-25.3666 12.7438 -4.6766 0.8913
-28.4444 13.5802 -5.1926 0.8800
-35.7494 15.3334 -6.4082 0.8541
-37.6829 15.2726 -6.6983 0.8480
-39.2429 14.9927 -6.9206 0.8434
-41.5963 14.9397 -7.2811 0.8360
-45.6098 15.3523 -7.9280 0.8228
-88.2534 -41.5493 -16.0695 0.6734
-55.7062 -41.5837 -11.4519 0.7544
-53.0439 -41.2842 -11.0732 0.7615
-51.9370 -43.8898 -11.2020 0.7591
-55.6242 -48.9580 -12.2073 0.7405
-54.8058 -50.2306 -12.2471 0.7398
-13.9359 -36.3511 -6.4135 0.8540
-11.5295 -36.5312 -6.3107 0.8562
-8.7383 -32.1396 -5.4869 0.8737
-3.3321 -16.0183 -2.6954 0.9358
-4.8417 -25.8763 -4.3368 0.8988
-2.6592 -15.9843 -2.6694 0.9364
-2.3272 -15.9675 -2.6583 0.9367
-1.0227 -15.9002 -2.6248 0.9375
-0.7010 -15.8834 -2.6192 0.9376
-0.3805 -15.8628 -2.6140 0.9377
0.2567 -15.7797 -2.5999 0.9380
1.4536 -14.9761 -2.4787 0.9408
1.9368 -14.0479 -2.3361 0.9441
2.5614 -12.8082 -2.1518 0.9484
2.7469 -12.4295 -2.0970 0.9497
2.9224 -12.0660 -2.0452 0.9509
3.2464 -11.3807 -1.9496 0.9532
3.5381 -10.7442 -1.8635 0.9552
3.6733 -10.4425 -1.8236 0.9561
3.8019 -10.1507 -1.7857 0.9570
3.9243 -9.8683 -1.7495 0.9579
4.0409 -9.5948 -1.7151 0.9587
4.3596 -8.8217 -1.6211 0.9609
4.4563 -8.5784 -1.5925 0.9616
4.5487 -8.3416 -1.5652 0.9622
4.8024 -7.6668 -1.4904 0.9640
5.0928 -6.8386 -1.4047 0.9660
5.3372 -6.0779 -1.3325 0.9677
-86.0613 -41.0024 -20.1508 0.6772
-62.0490 -41.1408 -15.7370 0.7376
-59.3486 -42.8852 -15.4775 0.7413
-52.5622 -41.2994 -14.1300 0.7609
-49.4971 -42.2201 -13.7519 0.7665
-49.9174 -44.3445 -14.1138 0.7611
-21.9459 -36.3968 -8.9839 0.8405
-18.0994 -34.5777 -8.2498 0.8525
-16.2465 -32.6191 -7.7029 0.8616
-14.6086 -30.8722 -7.2195 0.8697
-13.1512 -29.3034 -6.7894 0.8769
-6.8506 -16.1255 -3.7035 0.9309
-4.2721 -16.0036 -3.5013 0.9345
-3.9248 -15.9868 -3.4796 0.9349
-3.5815 -15.9700 -3.4596 0.9353
-3.2420 -15.9533 -3.4411 0.9356
-2.5661 -15.8762 -3.3995 0.9364
-2.2337 -15.8370 -3.3808 0.9367
-1.9048 -15.7978 -3.3635 0.9370
-1.5812 -15.7791 -3.3521 0.9372
-0.2739 -14.1361 -2.9886 0.9438
0.2789 -13.3637 -2.8254 0.9468
0.5333 -13.0007 -2.7504 0.9482
1.2197 -11.9913 -2.5478 0.9519
1.8086 -11.0843 -2.3740 0.9551
2.1558 -10.5276 -2.2715 0.9570
2.6192 -9.7534 -2.1347 0.9596
3.1472 -8.8169 -1.9789 0.9624
3.2653 -8.5975 -1.9440 0.9631
3.4872 -8.1744 -1.8786 0.9643
3.5912 -7.9700 -1.8478 0.9649
3.6911 -7.7703 -1.8184 0.9654
3.7869 -7.5748 -1.7901 0.9660
3.8788 -7.3834 -1.7630 0.9665
3.9671 -7.1959 -1.7369 0.9670
4.0519 -7.0121 -1.7119 0.9674
4.1333 -6.8319 -1.6879 0.9679
4.2867 -6.4814 -1.6426 0.9687
4.3589 -6.3108 -1.6213 0.9691
4.4950 -5.9784 -1.5811 0.9699
4.5592 -5.8162 -1.5621 0.9702
4.8444 -5.0416 -1.4779 0.9718
4.8950 -4.8933 -1.4630 0.9721
5.0350 -4.4595 -1.4217 0.9729
5.1588 -4.0409 -1.3852 0.9736
5.1967 -3.9045 -1.3740 0.9738
5.2330 -3.7695 -1.3633 0.9740
5.2679 -3.6358 -1.3530 0.9742
5.3924 -3.1134 -1.3162 0.9749
5.4202 -2.9857 -1.3080 0.9750
5.4716 -2.7331 -1.2928 0.9753
5.5180 -2.4841 -1.2791 0.9756
5.5394 -2.3609 -1.2728 0.9757
5.5787 -2.1166 -1.2612 0.9759
5.6134 -1.8750 -1.2510 0.9761
5.6291 -1.7552 -1.2464 0.9762
5.6437 -1.6359 -1.2421 0.9763
4.0412 -0.7417 -0.8685 0.9833
3.9975 -0.6508 -0.8561 0.9836
3.9644 -0.4827 -0.8442 0.9838
3.9562 -0.4010 -0.8405 0.9839
3.9469 -0.3200 -0.8370 0.9839
3.9404 -0.2398 -0.8345 0.9840
3.9337 -0.0807 -0.8317 0.9840
3.9336 0.0776 -0.8316 0.9840
3.9370 0.1569 -0.8329 0.9840
3.9640 0.4794 -0.8440 0.9838
3.9962 0.6473 -0.8557 0.9836
5.6815 1.2762 -1.2309 0.9765
5.6701 1.3940 -1.2342 0.9764
5.6442 1.6311 -1.2419 0.9763
5.6296 1.7504 -1.2462 0.9762
5.5973 1.9906 -1.2557 0.9760
5.5794 2.1117 -1.2610 0.9759
5.5604 2.2334 -1.2666 0.9758
5.5189 2.4791 -1.2789 0.9756
5.4476 2.8538 -1.2999 0.9752
5.3936 3.1083 -1.3159 0.9749
5.3646 3.2371 -1.3244 0.9747
5.3342 3.3671 -1.3334 0.9745
5.2692 3.6305 -1.3526 0.9742
5.2345 3.7641 -1.3628 0.9740
5.1982 3.8990 -1.3735 0.9738
5.1604 4.0354 -1.3847 0.9736
5.1208 4.1733 -1.3964 0.9734
5.0368 4.4538 -1.4212 0.9729
4.9454 4.7410 -1.4481 0.9724
4.8465 5.0357 -1.4773 0.9718
4.7939 5.1860 -1.4928 0.9715
4.3447 5.3099 -1.4503 0.9723
3.9874 5.2944 -1.4010 0.9733
3.8176 5.2870 -1.3784 0.9737
3.1879 5.2598 -1.3001 0.9752
3.0412 5.2533 -1.2831 0.9755
2.6224 5.2349 -1.2376 0.9763
2.1055 5.2122 -1.1882 0.9773
1.9823 5.2067 -1.1777 0.9775
1.6252 5.1909 -1.1498 0.9780
0.7387 5.1515 -1.1000 0.9789
0.5272 5.1420 -1.0926 0.9791
0.1111 5.1232 -1.0832 0.9793
0.0080 5.1186 -1.0820 0.9793
-0.3005 5.1046 -1.0809 0.9793
-0.4034 5.1000 -1.0814 0.9793
-0.5064 5.0953 -1.0823 0.9793
-0.6096 5.0906 -1.0837 0.9793
-0.7131 5.0859 -1.0856 0.9792
-0.8171 5.0811 -1.0879 0.9792
-1.2383 5.0619 -1.1015 0.9789
-1.4536 5.0520 -1.1112 0.9787
-1.8977 5.0315 -1.1367 0.9783
-2.0121 5.0262 -1.1444 0.9781
-2.2460 5.0155 -1.1616 0.9778
-2.4873 5.0043 -1.1813 0.9774
-5.5612 10.1429 -2.4451 0.9538
-6.4611 10.2622 -2.5634 0.9516
-7.1226 10.3632 -2.6581 0.9499
-7.4712 10.4152 -2.7094 0.9489
-8.5711 10.5420 -2.8719 0.9460
-8.9494 10.5656 -2.9269 0.9450
-9.7492 10.6127 -3.0462 0.9428
-10.6140 10.6595 -3.1797 0.9404
-11.0931 10.7010 -3.2581 0.9389
-11.6003 10.7481 -3.3428 0.9374
-12.1335 10.7966 -3.4332 0.9358
-12.6719 10.8267 -3.5231 0.9341
-13.8297 10.8846 -3.7202 0.9306
-15.1209 10.9450 -3.9457 0.9265
-15.8336 10.9823 -4.0732 0.9242
-16.6104 11.0327 -4.2150 0.9217
-17.4584 11.0962 -4.3727 0.9189
-18.3700 11.1631 -4.5438 0.9159
-19.3520 11.2330 -4.7298 0.9126
-20.3469 11.2692 -4.9165 0.9093
-22.4250 11.2660 -5.3048 0.9025
-23.6073 11.2708 -5.5297 0.8986
-25.2113 11.4195 -5.8504 0.8930
-27.1780 11.6570 -6.2510 0.8861
-34.5763 13.2097 -7.8240 0.8596
-38.8858 13.0890 -8.6728 0.8456
-88.3796 -39.4561 -20.4589 0.6732
-86.1364 -42.6908 -20.3211 0.6750
-73.2228 -43.9547 -18.0524 0.7053
-73.5907 -48.3067 -18.6076 0.6977
-60.1902 -41.2671 -15.4261 0.7420
-50.9225 -39.6332 -13.6400 0.7681
-51.6601 -41.9034 -14.0606 0.7619
-50.2280 -42.4456 -13.9005 0.7643
-50.1089 -44.1035 -14.1104 0.7612
-48.9168 -44.8330 -14.0259 0.7624
-21.1881 -38.1520 -9.2248 0.8366
-16.6500 -33.0471 -7.8220 0.8596
-14.9663 -31.2551 -7.3251 0.8679
-6.9761 -16.2130 -3.7309 0.9304
-6.5515 -16.1117 -3.6765 0.9314
-6.1698 -16.0939 -3.6434 0.9320
-5.7948 -16.0763 -3.6122 0.9325
-5.4260 -16.0589 -3.5831 0.9330
-5.0629 -16.0416 -3.5558 0.9335
-4.7051 -16.0245 -3.5303 0.9340
-4.0039 -15.9907 -3.4845 0.9348
-3.6597 -15.9738 -3.4640 0.9352
-2.9796 -15.9243 -3.4245 0.9359
-2.6426 -15.8852 -3.4040 0.9363
-1.6548 -15.7812 -3.3541 0.9372
-1.3136 -15.5348 -3.2955 0.9383
-0.9698 -15.0792 -3.1940 0.9401
-0.3413 -14.2286 -3.0085 0.9435
-0.0533 -13.8306 -2.9235 0.9450
0.2188 -13.4490 -2.8432 0.9465
0.9516 -12.3912 -2.6269 0.9505
1.1710 -12.0644 -2.5622 0.9517
1.3796 -11.7491 -2.5006 0.9528
1.5779 -11.4447 -2.4421 0.9539
1.9464 -10.8655 -2.3333 0.9559
2.1178 -10.5895 -2.2827 0.9568
2.2812 -10.3220 -2.2345 0.9577
2.5861 -9.8101 -2.1445 0.9594
2.8646 -9.3264 -2.0623 0.9609
2.9948 -9.0942 -2.0239 0.9616
3.1194 -8.8679 -1.9871 0.9623
3.2388 -8.6473 -1.9519 0.9630
3.3531 -8.4320 -1.9181 0.9636
3.6686 -7.8155 -1.8250 0.9653
4.0328 -7.0538 -1.7175 0.9673
4.1150 -6.8728 -1.6933 0.9678
4.1939 -6.6952 -1.6700 0.9682
4.2697 -6.5209 -1.6476 0.9686
4.6667 -5.5352 -1.5304 0.9708
4.7242 -5.3799 -1.5134 0.9712
-87.3337 -37.3746 -24.5959 0.6754
-85.5587 -38.6702 -24.3103 0.6784
-86.9416 -41.4218 -24.9350 0.6717
-28.9392 -16.7664 -8.6596 0.8709
-70.5490 -50.9784 -22.5362 0.6979
-67.2490 -52.8394 -22.1438 0.7023
-66.4010 -54.3692 -22.2204 0.7015
-51.2485 -43.7139 -17.4406 0.7571
-43.3119 -40.0648 -15.2764 0.7837
-36.4180 -36.5143 -13.3527 0.8081
-37.7317 -39.3857 -14.1221 0.7982
-25.3139 -31.0829 -10.3792 0.8474
-23.1985 -29.6859 -9.7548 0.8558
-12.2441 -16.3354 -5.2858 0.9191
-11.1844 -16.2446 -5.1065 0.9217
-10.6958 -16.2245 -5.0315 0.9228
-10.2210 -16.2048 -4.9606 0.9239
-9.7592 -16.1855 -4.8936 0.9249
-9.3094 -16.1665 -4.8302 0.9258
-8.4428 -16.1294 -4.7137 0.9275
-8.0245 -16.1113 -4.6603 0.9283
-7.6153 -16.0934 -4.6098 0.9291
-6.4272 -16.0172 -4.4686 0.9312
-5.6642 -15.9438 -4.3809 0.9325
-2.5325 -13.8884 -3.6553 0.9433
-2.1903 -13.5514 -3.5543 0.9449
-1.8654 -13.2261 -3.4584 0.9463
-1.2633 -12.6074 -3.2807 0.9490
-0.2225 -11.4820 -2.9735 0.9537
0.0084 -11.2209 -2.9053 0.9547
0.2289 -10.9672 -2.8402 0.9557
0.8343 -10.2457 -2.6616 0.9584
1.0189 -10.0173 -2.6071 0.9592
1.1959 -9.7946 -2.5548 0.9600
1.3654 -9.5772 -2.5048 0.9608
1.5280 -9.3648 -2.4568 0.9616
1.6840 -9.1574 -2.4108 0.9623
1.8336 -8.9545 -2.3666 0.9629
2.3756 -8.1848 -2.2066 0.9654
2.4981 -8.0019 -2.1705 0.9660
2.7294 -7.6466 -2.1022 0.9670
3.2360 -6.8122 -1.9527 0.9693
3.3263 -6.6536 -1.9260 0.9697
3.5781 -6.1923 -1.8517 0.9709
3.6561 -6.0430 -1.8287 0.9712
3.7311 -5.8959 -1.8065 0.9716
3.9405 -5.4664 -1.7448 0.9725
4.0053 -5.3270 -1.7256 0.9728
4.3475 -4.5245 -1.6246 0.9744
4.4454 -4.2686 -1.5957 0.9749
4.5362 -4.0176 -1.5689 0.9753
4.6201 -3.7714 -1.5442 0.9757
4.6975 -3.5294 -1.5213 0.9760
4.7339 -3.4100 -1.5106 0.9762
4.8650 -2.9410 -1.4719 0.9768
4.8942 -2.8258 -1.4633 0.9769
4.9222 -2.7114 -1.4550 0.9770
4.9983 -2.3723 -1.4325 0.9774
5.0212 -2.2604 -1.4258 0.9775
5.1011 -1.8188 -1.4022 0.9779
5.1342 -1.6009 -1.3924 0.9780
4.1142 -0.8410 -1.0873 0.9828
4.0363 -0.7408 -1.0625 0.9832
3.9756 -0.5654 -1.0397 0.9835
3.9562 -0.4816 -1.0319 0.9837
3.9427 -0.3996 -1.0261 0.9838
3.9293 -0.3186 -1.0207 0.9838
3.9188 -0.2385 -1.0165 0.9839
3.9110 -0.0803 -1.0128 0.9840
3.9061 -0.0016 -1.0114 0.9840
3.9108 0.0771 -1.0128 0.9840
3.9147 0.1561 -1.0144 0.9839
3.9287 0.3153 -1.0205 0.9838
3.9422 0.3964 -1.0258 0.9838
4.0007 0.6480 -1.0494 0.9834
4.1093 0.8366 -1.0858 0.9828
5.1877 1.1653 -1.3766 0.9783
5.1760 1.2726 -1.3801 0.9782
5.1348 1.5966 -1.3923 0.9780
5.1018 1.8145 -1.4020 0.9779
5.0643 2.0342 -1.4131 0.9777
5.0438 2.1448 -1.4191 0.9776
4.9752 2.4801 -1.4394 0.9773
4.9499 2.5931 -1.4468 0.9772
4.9233 2.7068 -1.4547 0.9771
4.8954 2.8212 -1.4629 0.9769
4.8356 3.0522 -1.4806 0.9766
4.7702 3.2867 -1.4999 0.9763
4.7354 3.4051 -1.5102 0.9762
4.6217 3.7665 -1.5437 0.9757
4.5807 3.8891 -1.5558 0.9755
4.5379 4.0127 -1.5684 0.9753
4.4473 4.2634 -1.5952 0.9749
4.3994 4.3908 -1.6093 0.9746
4.3495 4.5193 -1.6240 0.9744
4.2977 4.6492 -1.6393 0.9742
4.2441 4.7806 -1.6552 0.9739
4.1303 5.0477 -1.6887 0.9734
3.9842 5.2901 -1.7147 0.9730
3.1855 5.2557 -1.5912 0.9749
3.0390 5.2494 -1.5705 0.9752
2.7567 5.2371 -1.5323 0.9758
2.6205 5.2311 -1.5149 0.9761
2.4874 5.2253 -1.4984 0.9764
2.3570 5.2197 -1.4829 0.9766
2.1040 5.2085 -1.4545 0.9771
1.8601 5.1978 -1.4294 0.9774
1.5087 5.1823 -1.3975 0.9779
1.3948 5.1773 -1.3883 0.9781
1.2825 5.1723 -1.3798 0.9782
1.1714 5.1673 -1.3719 0.9783
1.0616 5.1625 -1.3646 0.9785
0.9528 5.1577 -1.3580 0.9786
0.8451 5.1529 -1.3520 0.9787
0.6322 5.1434 -1.3417 0.9788
0.4223 5.1340 -1.3338 0.9789
0.2144 5.1247 -1.3280 0.9790
0.1111 5.1200 -1.3260 0.9791
-0.1976 5.1061 -1.3230 0.9791
-0.5061 5.0921 -1.3249 0.9791
-0.8165 5.0779 -1.3316 0.9790
-0.9208 5.0731 -1.3350 0.9789
-2.0108 5.0229 -1.4009 0.9779
-2.3640 5.0065 -1.4335 0.9774
-2.6094 4.9950 -1.4591 0.9770
-2.9954 4.9769 -1.5040 0.9763
-3.1295 4.9706 -1.5208 0.9760
-3.2667 4.9642 -1.5386 0.9757
-3.8512 4.9365 -1.6211 0.9745
-4.0076 4.9292 -1.6449 0.9741
-4.1687 4.9215 -1.6700 0.9737
-4.5253 5.1295 -1.7711 0.9721
-10.0381 10.0810 -3.6835 0.9429
-10.4813 10.1108 -3.7707 0.9416
-11.4305 10.1711 -3.9616 0.9387
-11.9401 10.2016 -4.0662 0.9372
-12.4541 10.2144 -4.1704 0.9356
-12.9914 10.2248 -4.2806 0.9340
-13.5562 10.2344 -4.3979 0.9322
-14.1517 10.2434 -4.5233 0.9304
-15.4621 10.2699 -4.8061 0.9262
-17.8386 10.3545 -5.3404 0.9183
-20.6138 10.3561 -5.9730 0.9091
-21.6098 10.3172 -6.2002 0.9058
-24.0534 10.3169 -6.7766 0.8975
-27.9305 10.6708 -7.7415 0.8838
-31.0922 11.1671 -8.5538 0.8724
-36.4432 11.4557 -9.8910 0.8540
-41.8361 11.3229 -11.2218 0.8360
-86.5378 -40.7415 -24.7652 0.6735
-74.2547 -46.6320 -22.7027 0.6961
-69.6415 -51.9864 -22.5013 0.6983
-66.7743 -54.1632 -22.2616 0.7010
-38.2804 -36.5289 -13.7001 0.8036
-36.7576 -36.5170 -13.4154 0.8073
-38.3290 -39.6421 -14.2772 0.7963
-30.9852 -34.7415 -12.0531 0.8250
-25.8313 -31.4216 -10.5319 0.8453
-21.7135 -28.6925 -9.3165 0.8618
-11.8053 -16.2700 -5.2047 0.9203
-10.8064 -16.2291 -5.0483 0.9226
-9.8638 -16.1898 -4.9086 0.9247
-8.9702 -16.1520 -4.7837 0.9265
-8.5398 -16.1336 -4.7264 0.9273
-8.1193 -16.1154 -4.6722 0.9282
-7.3056 -16.0798 -4.5729 0.9296
-6.9112 -16.0623 -4.5275 0.9303
-6.5165 -16.0256 -4.4792 0.9310
-5.7501 -15.9522 -4.3904 0.9323
-5.3776 -15.9156 -4.3497 0.9329
-5.0121 -15.8809 -4.3118 0.9335
-3.7721 -15.0655 -4.0211 0.9378
-3.3645 -14.6853 -3.9008 0.9396
-2.6134 -13.9672 -3.6791 0.9430
-1.9383 -13.2995 -3.4799 0.9460
-1.6261 -12.9827 -3.3877 0.9474
-0.7777 -12.0921 -3.1373 0.9512
-0.5214 -11.8134 -3.0617 0.9523
-0.2768 -11.5428 -2.9895 0.9534
0.1793 -11.0246 -2.8548 0.9555
0.3923 -10.7761 -2.7920 0.9564
0.9773 -10.0691 -2.6193 0.9591
1.4914 -9.4130 -2.4676 0.9614
1.8000 -9.0005 -2.3765 0.9628
2.0843 -8.6056 -2.2926 0.9641
2.2182 -8.4145 -2.2531 0.9647
2.4705 -8.0434 -2.1786 0.9658
2.5894 -7.8633 -2.1435 0.9664
2.7039 -7.6866 -2.1097 0.9669
2.8140 -7.5131 -2.0772 0.9674
3.0220 -7.1752 -2.0158 0.9683
3.1202 -7.0107 -1.9869 0.9688
3.3059 -6.6896 -1.9320 0.9696
3.4784 -6.3787 -1.8812 0.9704
3.5598 -6.2267 -1.8571 0.9708
3.7871 -5.7838 -1.7900 0.9718
3.9253 -5.4986 -1.7492 0.9725
4.1144 -5.0842 -1.6934 0.9733
4.2292 -4.8162 -1.6595 0.9739
-59.4371 -29.7997 -20.4506 0.7571
-32.0337 -16.8756 -11.1365 0.8594
-30.4371 -16.8255 -10.6970 0.8646
-28.9606 -16.7788 -10.2947 0.8693
-27.5900 -16.7352 -9.9252 0.8737
-26.3133 -16.6942 -9.5849 0.8777
-25.1204 -16.6556 -9.2705 0.8815
-24.0023 -16.6191 -8.9795 0.8850
-22.9515 -16.5846 -8.7095 0.8882
-21.0258 -16.5205 -8.2246 0.8941
-20.1401 -16.4907 -8.0063 0.8968
-19.2994 -16.4621 -7.8023 0.8993
-17.7382 -16.4082 -7.4322 0.9038
-16.3151 -16.3583 -7.1062 0.9078
-15.6486 -16.3346 -6.9576 0.9097
-15.0088 -16.3115 -6.8178 0.9114
-13.8018 -16.2675 -6.5617 0.9146
-12.6574 -16.1971 -6.3227 0.9176
-12.1146 -16.1624 -6.2127 0.9189
-11.5893 -16.1280 -6.1086 0.9202
-9.6593 -16.0198 -5.7538 0.9247
-9.0524 -15.7203 -5.5796 0.9269
-7.8996 -15.0916 -5.2393 0.9312
-7.3660 -14.7892 -5.0819 0.9332
-6.8587 -14.4945 -4.9321 0.9351
-5.0609 -13.3854 -4.4015 0.9419
-4.6626 -13.1243 -4.2840 0.9434
-3.9192 -12.6200 -4.0645 0.9462
-2.6186 -11.6766 -3.6807 0.9512
-2.3275 -11.4532 -3.5947 0.9523
-2.0485 -11.2343 -3.5124 0.9533
-1.7811 -11.0198 -3.4335 0.9544
-0.8155 -10.2037 -3.1485 0.9581
-0.1866 -9.6310 -2.9629 0.9605
0.0071 -9.4470 -2.9057 0.9612
0.8720 -8.5728 -2.6504 0.9646
1.3186 -8.0816 -2.5186 0.9663
1.4570 -7.9228 -2.4778 0.9668
1.5904 -7.7665 -2.4384 0.9674
1.8434 -7.4605 -2.3637 0.9684
2.1908 -7.0175 -2.2612 0.9697
2.2987 -6.8738 -2.2293 0.9701
2.4029 -6.7320 -2.1986 0.9705
2.6948 -6.3171 -2.1124 0.9717
2.7856 -6.1821 -2.0856 0.9720
2.8733 -6.0488 -2.0597 0.9724
2.9581 -5.9170 -2.0347 0.9727
3.4100 -5.1559 -1.9013 0.9745
3.8317 -4.3232 -1.7768 0.9761
3.8840 -4.2084 -1.7614 0.9763
3.9344 -4.0945 -1.7466 0.9765
3.9830 -3.9816 -1.7322 0.9767
4.1185 -3.6477 -1.6922 0.9772
4.1605 -3.5381 -1.6798 0.9774
4.2008 -3.4291 -1.6679 0.9776
4.2397 -3.3209 -1.6565 0.9777
4.2770 -3.2134 -1.6454 0.9779
4.3129 -3.1066 -1.6348 0.9780
4.3803 -2.8949 -1.6149 0.9783
4.4120 -2.7899 -1.6056 0.9784
4.5255 -2.3755 -1.5721 0.9788
4.5748 -2.1712 -1.5575 0.9790
4.6192 -1.9687 -1.5444 0.9792
4.6397 -1.8679 -1.5384 0.9793
4.6590 -1.7676 -1.5327 0.9794
4.6772 -1.6677 -1.5273 0.9794
4.7103 -1.4687 -1.5176 0.9796
4.7251 -1.3696 -1.5132 0.9796
4.0287 -0.5730 -1.2516 0.9831
4.0055 -0.4877 -1.2411 0.9833
3.9879 -0.4042 -1.2329 0.9834
3.9707 -0.3220 -1.2253 0.9835
3.9575 -0.2408 -1.2195 0.9835
3.9519 -0.1607 -1.2165 0.9836
3.9462 0.0779 -1.2140 0.9836
3.9573 0.2376 -1.2194 0.9835
4.0049 0.4843 -1.2408 0.9833
4.0275 0.5695 -1.2511 0.9831
4.7638 1.0701 -1.5017 0.9798
4.7522 1.1684 -1.5052 0.9797
4.6949 1.5641 -1.5221 0.9795
4.6779 1.6637 -1.5271 0.9794
4.6405 1.8639 -1.5381 0.9793
4.5985 2.0656 -1.5505 0.9791
4.5518 2.2690 -1.5643 0.9789
4.5266 2.3714 -1.5718 0.9788
4.4725 2.5775 -1.5877 0.9786
4.4435 2.6813 -1.5963 0.9785
4.4132 2.7857 -1.6052 0.9784
4.3816 2.8906 -1.6146 0.9783
4.3486 2.9962 -1.6243 0.9781
4.2412 3.3166 -1.6560 0.9777
4.2024 3.4248 -1.6674 0.9776
4.1621 3.5337 -1.6793 0.9774
4.0317 3.8650 -1.7178 0.9769
3.9849 3.9771 -1.7316 0.9767
3.8861 4.2038 -1.7608 0.9763
3.7799 4.4343 -1.7922 0.9759
3.6059 4.7877 -1.8435 0.9752
3.4794 5.0287 -1.8808 0.9747
3.3334 5.2580 -1.9149 0.9743
2.8939 5.2392 -1.8409 0.9753
2.4856 5.2215 -1.7787 0.9761
2.3553 5.2159 -1.7603 0.9763
1.9796 5.1995 -1.7112 0.9770
1.8588 5.1942 -1.6968 0.9772
1.7400 5.1890 -1.6834 0.9774
1.5077 5.1789 -1.6590 0.9777
1.3939 5.1737 -1.6481 0.9778
1.2816 5.1689 -1.6380 0.9780
1.0609 5.1591 -1.6200 0.9782
0.9522 5.1542 -1.6122 0.9783
0.8445 5.1495 -1.6050 0.9784
0.6318 5.1400 -1.5929 0.9786
0.5266 5.1354 -1.5878 0.9786
0.4220 5.1306 -1.5834 0.9787
0.3179 5.1260 -1.5797 0.9787
0.1109 5.1167 -1.5742 0.9788
0.0080 5.1121 -1.5724 0.9788
-0.3001 5.0981 -1.5708 0.9789
-0.4029 5.0934 -1.5715 0.9788
-0.6088 5.0841 -1.5749 0.9788
-0.9202 5.0698 -1.5848 0.9787
-1.1305 5.0602 -1.5948 0.9785
-1.3438 5.0503 -1.6074 0.9784
-1.5608 5.0403 -1.6229 0.9782
-1.6709 5.0352 -1.6318 0.9780
-1.7824 5.0300 -1.6414 0.9779
-2.0094 5.0195 -1.6630 0.9776
-2.1253 5.0140 -1.6750 0.9775
-2.2429 5.0086 -1.6879 0.9773
-2.4839 4.9973 -1.7164 0.9769
-2.7335 4.9855 -1.7488 0.9765
-2.8620 4.9795 -1.7665 0.9763
-2.9932 4.9732 -1.7853 0.9760
-3.2643 4.9604 -1.8264 0.9755
-3.5486 4.9469 -1.8726 0.9748
-3.6964 4.9399 -1.8977 0.9745
-4.0044 4.9252 -1.9524 0.9738
-4.1653 4.9176 -1.9822 0.9734
-4.3312 4.9096 -2.0137 0.9730
-6.1276 4.8227 -2.3984 0.9679
-6.3723 4.8109 -2.4558 0.9671
-6.8991 4.7853 -2.5825 0.9655
-7.1837 4.7715 -2.6525 0.9646
-8.1399 4.7249 -2.8949 0.9614
-8.4992 4.7073 -2.9884 0.9602
-9.2929 4.6686 -3.1987 0.9574
-9.7338 4.6473 -3.3177 0.9559
-10.3316 4.6798 -3.4886 0.9536
-26.3888 9.4777 -8.6243 0.8893
-28.8855 9.7229 -9.3744 0.8803
-31.3707 9.8612 -10.1145 0.8714
-33.8755 9.9041 -10.8556 0.8627
-35.7804 9.6839 -11.4012 0.8563
-41.4587 9.4483 -13.0787 0.8370
-88.2813 18.2584 -27.7281 0.6857
-28.0384 4.0534 -8.7137 0.8882
-29.6288 3.6764 -9.1831 0.8825
-83.7943 -27.7007 -27.1451 0.6912
-81.3517 -28.7216 -26.5357 0.6969
-78.3907 -29.4633 -25.7581 0.7044
-69.7501 -31.1391 -23.4945 0.7264
-64.8891 -30.5494 -22.0598 0.7407
-60.4113 -29.9409 -20.7381 0.7541
-32.3622 -16.8588 -11.2236 0.8584
-30.7913 -16.8366 -10.7941 0.8634
-23.1863 -16.5924 -8.7696 0.8875
-22.1829 -16.5592 -8.5143 0.8906
-18.6795 -16.4409 -7.6539 0.9011
-13.3508 -16.2403 -6.4664 0.9158
-12.2371 -16.1704 -6.2373 0.9186
-11.7080 -16.1359 -6.1319 0.9200
-11.1956 -16.1017 -6.0321 0.9212
-10.2181 -16.0360 -5.8485 0.9235
-9.7621 -16.0228 -5.7709 0.9245
-9.1922 -15.7943 -5.6208 0.9264
-8.0255 -15.1619 -5.2765 0.9307
-7.4857 -14.8578 -5.1172 0.9327
-6.4844 -14.2721 -4.8216 0.9365
-6.0196 -13.9900 -4.6845 0.9383
-5.5768 -13.7147 -4.5538 0.9399
-4.7521 -13.1834 -4.3104 0.9430
-4.3678 -12.9271 -4.1969 0.9445
-4.0008 -12.6766 -4.0886 0.9459
-3.3148 -12.1920 -3.8861 0.9485
-2.6870 -11.7284 -3.7008 0.9509
-1.8413 -11.0686 -3.4512 0.9541
-0.8665 -10.2487 -3.1635 0.9579
-0.6466 -10.0534 -3.0986 0.9587
-0.4352 -9.8618 -3.0362 0.9595
-0.2320 -9.6737 -2.9763 0.9603
0.1514 -9.3072 -2.8631 0.9618
0.6743 -8.7809 -2.7088 0.9638
0.9915 -8.4443 -2.6151 0.9650
1.1416 -8.2800 -2.5708 0.9656
1.2862 -8.1183 -2.5282 0.9662
1.4258 -7.9590 -2.4870 0.9667
1.6901 -7.6475 -2.4090 0.9678
2.0529 -7.1968 -2.3019 0.9692
2.3794 -6.7642 -2.2055 0.9704
2.6736 -6.3481 -2.1187 0.9716
2.7652 -6.2129 -2.0917 0.9719
3.6500 -4.7007 -1.8305 0.9754
3.7085 -4.5827 -1.8132 0.9756
3.7650 -4.4656 -1.7966 0.9759
3.8195 -4.3496 -1.7804 0.9761
-32.1000 -12.9794 -12.3821 0.8632
-30.9903 -13.2624 -12.0546 0.8666
-27.7231 -13.8995 -11.0902 0.8766
-26.6655 -14.0476 -10.7781 0.8798
-25.6281 -14.1671 -10.4719 0.8830
-22.6538 -14.3725 -9.5940 0.8923
-19.9095 -14.3866 -8.7841 0.9009
-19.0485 -14.3565 -8.5300 0.9036
-17.4075 -14.2532 -8.0456 0.9089
-15.8732 -14.1010 -7.5927 0.9138
-15.1450 -14.0096 -7.3778 0.9161
-13.7644 -13.8008 -6.9703 0.9205
-13.1107 -13.6854 -6.7774 0.9226
-12.4804 -13.5636 -6.5914 0.9247
-11.8730 -13.4363 -6.4121 0.9267
-10.7238 -13.1677 -6.0729 0.9304
-8.6681 -12.5899 -5.4662 0.9371
-7.7505 -12.2879 -5.1953 0.9401
-6.8991 -11.9809 -4.9441 0.9430
-6.4968 -11.8263 -4.8253 0.9443
-5.3756 -11.3603 -4.4944 0.9480
-5.0287 -11.2049 -4.3920 0.9492
-4.6943 -11.0498 -4.2933 0.9503
-4.3719 -10.8951 -4.1981 0.9514
-3.7612 -10.5872 -4.0179 0.9534
-3.4721 -10.4343 -3.9326 0.9544
-3.1932 -10.2823 -3.8503 0.9553
-2.6642 -9.9807 -3.6941 0.9571
-1.9379 -9.5357 -3.4797 0.9595
-1.7121 -9.3895 -3.4131 0.9603
-1.2836 -9.1005 -3.2866 0.9617
-1.0800 -8.9577 -3.2266 0.9624
-0.8834 -8.8162 -3.1685 0.9631
-0.6934 -8.6758 -3.1124 0.9637
-0.5096 -8.5365 -3.0582 0.9643
0.0061 -8.1262 -2.9060 0.9661
0.3224 -7.8586 -2.8126 0.9671
0.6185 -7.5956 -2.7252 0.9681
0.7594 -7.4659 -2.6837 0.9686
0.8958 -7.3373 -2.6434 0.9691
1.2796 -6.9584 -2.5301 0.9704
1.3995 -6.8343 -2.4947 0.9708
1.6281 -6.5893 -2.4273 0.9716
1.9448 -6.2295 -2.3338 0.9727
2.0439 -6.1116 -2.3046 0.9730
2.2327 -5.8787 -2.2488 0.9736
2.4101 -5.6495 -2.1965 0.9742
2.4946 -5.5363 -2.1715 0.9745
2.6558 -5.3124 -2.1239 0.9751
2.8071 -5.0919 -2.0793 0.9756
3.1456 -4.5543 -1.9793 0.9768
3.2070 -4.4489 -1.9612 0.9770
3.2664 -4.3444 -1.9437 0.9772
3.3239 -4.2404 -1.9267 0.9774
3.3796 -4.1370 -1.9103 0.9776
3.4333 -4.0344 -1.8944 0.9777
3.4853 -3.9324 -1.8791 0.9779
3.5356 -3.8309 -1.8643 0.9781
3.6765 -3.5302 -1.8227 0.9786
3.7202 -3.4310 -1.8098 0.9787
3.7624 -3.3323 -1.7973 0.9789
3.8031 -3.2342 -1.7853 0.9790
3.8423 -3.1365 -1.7737 0.9792
3.9165 -2.9426 -1.7518 0.9794
3.9515 -2.8464 -1.7415 0.9795
3.9851 -2.7505 -1.7316 0.9796
4.0484 -2.5600 -1.7129 0.9799
4.0781 -2.4653 -1.7041 0.9800
4.1337 -2.2771 -1.6877 0.9802
4.1598 -2.1834 -1.6800 0.9802
4.1846 -2.0902 -1.6727 0.9803
4.2082 -1.9972 -1.6657 0.9804
4.2306 -1.9045 -1.6591 0.9805
4.3259 -1.4450 -1.6310 0.9808
4.3564 -1.2628 -1.6220 0.9809
4.3700 -1.1719 -1.6180 0.9810
4.3942 -0.9908 -1.6108 0.9810
4.4227 -0.7200 -1.6024 0.9811
4.4302 -0.6300 -1.6002 0.9812
4.4367 -0.5401 -1.5983 0.9812
4.0632 -0.2473 -1.4557 0.9829
4.0591 -0.0833 -1.4519 0.9829
4.0591 0.0800 -1.4518 0.9829
4.0601 0.1619 -1.4530 0.9829
4.4369 0.5365 -1.5982 0.9812
4.4305 0.6264 -1.6001 0.9812
4.4146 0.8066 -1.6048 0.9811
4.4052 0.8968 -1.6076 0.9811
4.3831 1.0777 -1.6141 0.9810
4.3706 1.1684 -1.6178 0.9810
4.2315 1.9008 -1.6589 0.9805
4.2091 1.9934 -1.6655 0.9804
4.1855 2.0864 -1.6724 0.9803
4.1077 2.3673 -1.6954 0.9801
4.0187 2.6512 -1.7217 0.9798
3.9864 2.7466 -1.7312 0.9796
3.9529 2.8425 -1.7411 0.9795
3.9179 2.9388 -1.7514 0.9794
3.8816 3.0354 -1.7621 0.9793
3.8439 3.1326 -1.7733 0.9792
3.7641 3.3284 -1.7968 0.9789
3.6782 3.5261 -1.8222 0.9786
3.6330 3.6258 -1.8355 0.9784
3.5376 3.8269 -1.8637 0.9781
3.4874 3.9283 -1.8785 0.9779
3.4355 4.0303 -1.8938 0.9778
3.3817 4.1329 -1.9097 0.9776
3.3262 4.2362 -1.9261 0.9774
3.0195 4.7627 -2.0166 0.9763
2.8101 5.0874 -2.0784 0.9756
2.4837 5.2176 -2.0665 0.9758
2.3536 5.2120 -2.0450 0.9760
1.8575 5.1905 -1.9714 0.9769
1.7387 5.1852 -1.9558 0.9770
1.3929 5.1702 -1.9148 0.9775
1.2807 5.1652 -1.9031 0.9776
1.1698 5.1604 -1.8922 0.9778
1.0601 5.1555 -1.8822 0.9779
0.9515 5.1507 -1.8731 0.9780
0.8439 5.1460 -1.8648 0.9781
0.4217 5.1272 -1.8397 0.9784
0.3177 5.1225 -1.8354 0.9784
0.2141 5.1179 -1.8318 0.9785
0.0080 5.1086 -1.8269 0.9785
-0.3000 5.0947 -1.8251 0.9786
-0.4026 5.0901 -1.8259 0.9785
-0.5054 5.0854 -1.8275 0.9785
-0.8154 5.0712 -1.8368 0.9784
-1.0243 5.0616 -1.8468 0.9783
-1.2359 5.0519 -1.8599 0.9781
-1.3428 5.0469 -1.8676 0.9781
-1.5597 5.0369 -1.8856 0.9778
-1.6698 5.0317 -1.8959 0.9777
-1.7811 5.0265 -1.9070 0.9776
-2.0080 5.0159 -1.9321 0.9773
-2.2413 5.0050 -1.9611 0.9770
-2.4821 4.9936 -1.9942 0.9766
-2.6056 4.9877 -2.0124 0.9764
-2.8599 4.9757 -2.0523 0.9759
-3.5458 4.9430 -2.1754 0.9745
-3.8451 4.9286 -2.2354 0.9738
-4.1618 4.9134 -2.3027 0.9730
-4.3275 4.9054 -2.3393 0.9726
-4.4986 4.8971 -2.3780 0.9721
-4.6756 4.8886 -2.4191 0.9717
-5.4511 4.8505 -2.6094 0.9695
-5.8881 4.8291 -2.7232 0.9682
-6.6220 4.7933 -2.9234 0.9659
-6.8916 4.7801 -2.9993 0.9650
-7.4755 4.7513 -3.1676 0.9631
-7.7930 4.7357 -3.2611 0.9620
-8.1300 4.7191 -3.3616 0.9609
-9.2803 4.6623 -3.7140 0.9568
-9.7197 4.6405 -3.8517 0.9553
-11.2618 4.5643 -4.3455 0.9497
-12.5325 4.5012 -4.7620 0.9450
-13.2643 4.4647 -5.0049 0.9423
-13.9194 4.3755 -5.2178 0.9399
-13.8226 4.0413 -5.1500 0.9407
-13.9311 3.7705 -5.1611 0.9405
-17.1431 4.2715 -6.3179 0.9277
-18.4549 4.2059 -6.7688 0.9227
-19.9698 4.1302 -7.2925 0.9170
-23.8342 3.9369 -8.6388 0.9025
-26.3587 3.8107 -9.5241 0.8930
-45.6484 3.8069 -16.3809 0.8232
-46.3109 1.9905 -16.5764 0.8213
-46.1162 -2.6621 -16.5190 0.8218
-45.7610 -3.5668 -16.4141 0.8228
-45.3074 -4.4503 -16.2802 0.8242
-44.1253 -6.1353 -15.9313 0.8276
-43.4095 -6.9288 -15.7201 0.8297
-41.7646 -8.4021 -15.2346 0.8345
-40.8510 -9.0773 -14.9650 0.8371
-39.8871 -9.7093 -14.6804 0.8400
-38.8808 -10.2973 -14.3834 0.8429
-35.6819 -11.7957 -13.4393 0.8524
-34.5789 -12.2083 -13.1137 0.8557
-30.1397 -13.4555 -11.8035 0.8692
-29.0465 -13.6749 -11.4809 0.8725
-27.9676 -13.8612 -11.1624 0.8758
-26.9058 -14.0163 -10.8490 0.8791
-23.8456 -14.3143 -9.9458 0.8886
-21.9256 -14.3925 -9.3791 0.8946
-19.2432 -14.3648 -8.5874 0.9030
-16.8034 -14.1999 -7.8673 0.9108
-13.9174 -13.8263 -7.0155 0.9200
-12.0099 -13.4659 -6.4525 0.9262
-10.8509 -13.1993 -6.1104 0.9300
-7.8520 -12.3228 -5.2253 0.9398
-7.4146 -12.1700 -5.0962 0.9413
-6.1965 -11.7066 -4.7367 0.9453
-5.1070 -11.2404 -4.4151 0.9489
-4.7697 -11.0853 -4.3156 0.9500
-4.4447 -10.9304 -4.2196 0.9511
-3.5373 -10.4693 -3.9518 0.9541
-3.2561 -10.3170 -3.8688 0.9551
-2.9848 -10.1655 -3.7887 0.9560
-2.7229 -10.0149 -3.7114 0.9569
-2.2262 -9.7168 -3.5648 0.9585
-1.5434 -9.2775 -3.3633 0.9608
-1.3311 -9.1334 -3.3007 0.9615
-1.1260 -8.9903 -3.2401 0.9622
-0.7362 -8.7078 -3.1251 0.9636
-0.5511 -8.5683 -3.0704 0.9642
-0.0314 -8.1571 -2.9171 0.9659
0.1305 -8.0224 -2.8693 0.9665
0.2872 -7.8889 -2.8230 0.9670
0.4388 -7.7566 -2.7783 0.9675
0.7276 -7.4955 -2.6930 0.9685
0.8650 -7.3667 -2.6525 0.9690
1.1269 -7.1124 -2.5752 0.9699
1.6027 -6.6171 -2.4347 0.9715
1.8187 -6.3758 -2.3710 0.9722
1.9217 -6.2566 -2.3406 0.9726
2.3025 -5.7898 -2.2282 0.9739
2.3903 -5.6755 -2.2023 0.9742
2.4755 -5.5621 -2.1771 0.9745
2.5580 -5.4495 -2.1528 0.9748
2.7153 -5.2270 -2.1064 0.9753
2.7904 -5.1169 -2.0842 0.9755
3.0014 -4.7915 -2.0219 0.9763
3.0674 -4.6846 -2.0024 0.9765
3.3110 -4.2641 -1.9306 0.9773
3.4212 -4.0579 -1.8980 0.9777
3.4736 -3.9557 -1.8826 0.9779
-19.3814 -8.2943 -8.6282 0.9129
-18.3800 -8.7568 -8.3326 0.9158
-17.8737 -8.9612 -8.1832 0.9172
-17.3655 -9.1483 -8.0332 0.9187
-15.3407 -9.7328 -7.4356 0.9245
-14.8420 -9.8408 -7.2884 0.9259
-14.3482 -9.9347 -7.1426 0.9273
-13.8601 -10.0152 -6.9986 0.9288
-13.3783 -10.0830 -6.8564 0.9302
-11.9764 -10.2157 -6.4426 0.9342
-11.5251 -10.2384 -6.3094 0.9355
-11.0824 -10.2515 -6.1787 0.9368
-10.6484 -10.2553 -6.0507 0.9381
-9.8078 -10.2377 -5.8025 0.9406
-7.8688 -10.0694 -5.2303 0.9463
-7.5089 -10.0180 -5.1240 0.9473
-7.1583 -9.9617 -5.0205 0.9484
-6.8167 -9.9008 -4.9197 0.9494
-6.1603 -9.7667 -4.7260 0.9513
-5.5385 -9.6181 -4.5425 0.9532
-4.9504 -9.4573 -4.3689 0.9549
-4.3943 -9.2864 -4.2047 0.9566
-3.6173 -9.0146 -3.9754 0.9589
-3.3729 -8.9207 -3.9033 0.9596
-2.9045 -8.7288 -3.7651 0.9610
-2.4626 -8.5323 -3.6346 0.9623
-2.2511 -8.4328 -3.5722 0.9630
-2.0456 -8.3324 -3.5115 0.9636
-1.8460 -8.2316 -3.4526 0.9642
-1.6522 -8.1300 -3.3954 0.9648
-1.1033 -7.8229 -3.2334 0.9664
-0.9308 -7.7201 -3.1825 0.9670
-0.7632 -7.6170 -3.1330 0.9675
0.2828 -6.8950 -2.8243 0.9706
0.4157 -6.7923 -2.7851 0.9710
0.5447 -6.6898 -2.7470 0.9714
1.0251 -6.2824 -2.6052 0.9729
1.1367 -6.1813 -2.5723 0.9732
1.2452 -6.0805 -2.5403 0.9735
1.4529 -5.8801 -2.4790 0.9742
1.5523 -5.7805 -2.4496 0.9745
1.8338 -5.4837 -2.3665 0.9753
2.0083 -5.2879 -2.3150 0.9758
2.1729 -5.0936 -2.2664 0.9763
2.2516 -4.9971 -2.2432 0.9766
2.4023 -4.8052 -2.1987 0.9770
2.6780 -4.4264 -2.1174 0.9779
2.8039 -4.2394 -2.0802 0.9783
3.1877 -3.5966 -1.9669 0.9794
3.2358 -3.5062 -1.9527 0.9796
3.2825 -3.4161 -1.9390 0.9797
3.3711 -3.2370 -1.9128 0.9800
3.4132 -3.1479 -1.9004 0.9801
3.6029 -2.7070 -1.8444 0.9807
3.7308 -2.3592 -1.8066 0.9811
3.8634 -1.9298 -1.7675 0.9815
3.9292 -1.6746 -1.7481 0.9817
4.0016 -1.3366 -1.7267 0.9819
4.0315 -1.1685 -1.7179 0.9820
4.0965 -0.6669 -1.6987 0.9822
4.1156 -0.4172 -1.6931 0.9823
4.1235 -0.2509 -1.6907 0.9823
4.1274 -0.0848 -1.6896 0.9823
4.1279 -0.0016 -1.6894 0.9823
4.1275 0.0814 -1.6896 0.9823
4.1260 0.1645 -1.6900 0.9823
4.1236 0.2476 -1.6907 0.9823
4.1105 0.4971 -1.6946 0.9823
4.1042 0.5803 -1.6964 0.9822
4.0968 0.6636 -1.6986 0.9822
4.0886 0.7470 -1.7010 0.9822
4.0793 0.8305 -1.7038 0.9822
4.0690 0.9140 -1.7068 0.9821
4.0454 1.0814 -1.7138 0.9821
4.0321 1.1652 -1.7177 0.9820
3.9858 1.4175 -1.7314 0.9819
3.9683 1.5019 -1.7365 0.9818
3.9497 1.5865 -1.7420 0.9818
3.9299 1.6712 -1.7479 0.9817
3.8874 1.8411 -1.7604 0.9816
3.8150 2.0974 -1.7818 0.9814
3.7886 2.1833 -1.7896 0.9813
3.7609 2.2694 -1.7978 0.9812
3.7321 2.3557 -1.8063 0.9811
3.7020 2.4423 -1.8151 0.9810
3.5691 2.7911 -1.8544 0.9806
3.4948 2.9671 -1.8763 0.9804
3.1400 3.6836 -1.9810 0.9793
3.0887 3.7747 -1.9962 0.9791
2.9245 4.0501 -2.0446 0.9786
2.8664 4.1427 -2.0618 0.9785
2.8063 4.2356 -2.0795 0.9783
2.7444 4.3290 -2.0978 0.9781
2.6806 4.4227 -2.1166 0.9779
2.4772 4.7061 -2.1766 0.9773
2.4053 4.8014 -2.1979 0.9771
2.3311 4.8971 -2.2198 0.9768
2.1761 5.0897 -2.2655 0.9764
2.0952 5.1866 -2.2894 0.9761
1.9767 5.1919 -2.2737 0.9763
1.8561 5.1866 -2.2546 0.9765
1.7375 5.1814 -2.2367 0.9767
1.5055 5.1714 -2.2044 0.9770
1.2798 5.1616 -2.1765 0.9773
0.8433 5.1424 -2.1328 0.9777
0.7368 5.1377 -2.1242 0.9778
0.6309 5.1330 -2.1166 0.9779
0.4214 5.1236 -2.1041 0.9780
0.2139 5.1144 -2.0950 0.9781
-0.0947 5.1005 -2.0879 0.9782
-0.2998 5.0912 -2.0873 0.9782
-0.5051 5.0819 -2.0901 0.9782
-0.6080 5.0772 -2.0928 0.9781
-0.8148 5.0677 -2.1007 0.9781
-1.2350 5.0483 -2.1271 0.9778
-1.3419 5.0434 -2.1359 0.9777
-1.4497 5.0384 -2.1457 0.9776
-1.5586 5.0333 -2.1565 0.9775
-1.7798 5.0229 -2.1810 0.9772
-1.8924 5.0177 -2.1948 0.9771
-2.0065 5.0123 -2.2097 0.9769
-2.1222 5.0068 -2.2256 0.9768
-2.2396 5.0013 -2.2428 0.9766
-2.3589 4.9956 -2.2611 0.9764
-2.6036 4.9840 -2.3014 0.9760
-2.8576 4.9719 -2.3470 0.9755
-2.9885 4.9656 -2.3720 0.9753
-3.1223 4.9591 -2.3984 0.9750
-3.2592 4.9526 -2.4265 0.9747
-3.5429 4.9389 -2.4877 0.9741
-3.6904 4.9318 -2.5210 0.9737
-4.3237 4.9011 -2.6749 0.9721
-4.4946 4.8927 -2.7192 0.9717
-4.6713 4.8841 -2.7660 0.9712
-5.4457 4.8457 -2.9834 0.9690
-5.8820 4.8243 -3.1135 0.9677
-6.1149 4.8128 -3.1849 0.9669
-6.3588 4.8007 -3.2609 0.9662
-8.1197 4.7132 -3.8425 0.9602
-9.7057 4.6338 -4.4018 0.9546
-10.1784 4.6103 -4.5732 0.9529
-11.2434 4.5569 -4.9652 0.9489
-11.8478 4.5264 -5.1909 0.9467
-15.9584 4.3191 -6.7664 0.9310
-18.4080 4.1952 -7.7271 0.9216
-19.9151 4.1189 -8.3233 0.9159
-21.6749 4.0298 -9.0230 0.9091
-24.5629 3.5510 -10.1575 0.8983
-24.7966 3.0768 -10.2265 0.8976
-24.9979 2.5922 -10.2859 0.8971
-25.1653 2.0987 -10.3353 0.8966
-25.3946 1.0915 -10.4030 0.8960
-25.4783 0.0691 -10.4277 0.8957
-25.3274 -1.4621 -10.3832 0.8961
-25.0464 -2.4602 -10.3002 0.8969
-24.8541 -2.9473 -10.2435 0.8975
-24.6290 -3.4245 -10.1770 0.8981
