ply
format ascii 1.0
element vertex 1342
property float32 x
property float32 y
property float32 z
property float32 CosAngle
property uint32 ObjIdx
property uint32 ObjTag
end_header
-28.0352 -29.7671 3.4615 0.0987 0 9
-17.2389 -19.0564 2.1753 0.1513 0 9
-17.0603 -19.6374 2.2021 0.2248 0 9
-17.4390 -20.9067 2.3047 0.4286 0 9
-16.7831 -20.9618 2.2732 0.2178 0 9
-15.7916 -20.5561 2.1943 0.1257 0 9
-21.2051 -28.7810 3.0263 0.4834 0 9
-20.1705 -28.5601 2.9599 0.4033 0 9
-19.7131 -29.1368 2.9780 0.2744 0 9
-19.2500 -29.7209 2.9976 0.1500 0 9
-19.4112 -31.3309 3.1200 0.2422 0 9
-16.4071 -27.7095 2.7261 0.0956 0 9
-21.7727 -38.5144 3.7452 0.3810 0 9
-20.4936 -38.0134 3.6557 0.1754 0 9
-20.4966 -39.9174 3.7985 0.3032 0 9
-19.0738 -39.0569 3.6795 0.1277 0 9
-19.1573 -41.3108 3.8548 0.0334 0 9
-14.9132 -40.3645 3.6427 0.3160 0 9
5.0255 -14.7336 1.3178 0.9236 0 9
8.6157 -22.2881 2.0228 0.2424 0 1
8.4145 -20.5322 1.8784 0.2611 0 1
8.6333 -19.9169 1.8376 0.9604 0 1
9.1333 -19.9623 1.8583 0.9546 0 1
9.5934 -19.9018 1.8703 0.9486 0 1
10.0596 -19.8405 1.8831 0.9421 0 1
10.5324 -19.7783 1.8969 0.9352 0 1
11.0124 -19.7150 1.9117 0.9280 0 1
6.5449 -11.1838 1.0969 0.8759 0 9
6.6505 -10.8583 1.0779 0.8717 0 9
6.9116 -10.7918 1.0848 0.6184 0 9
7.1159 -10.6346 1.0832 0.9026 0 9
11.0052 -15.7530 1.6267 0.2836 0 10
11.2104 -15.3795 1.6111 0.2385 0 10
14.0778 -18.5206 1.9693 0.9176 0 1
14.4069 -18.1840 1.9639 0.9921 0 1
14.8124 -17.9435 1.9697 0.0987 0 1
15.3310 -17.8302 1.9906 0.8312 0 1
15.7826 -17.6268 2.0029 0.1094 0 0
15.3880 -16.5070 1.9104 0.0886 0 0
6.7832 -6.9897 0.8245 0.7318 21 5
14.7119 -14.5630 1.7524 0.1265 0 0
14.5283 -13.8150 1.6971 0.1306 0 0
14.4231 -13.1738 1.6536 0.2305 0 0
14.5111 -12.7294 1.6340 0.2332 0 0
14.5992 -12.2968 1.6158 0.2359 0 0
14.6913 -11.8786 1.5993 0.2390 0 0
14.8260 -11.5029 1.5885 0.2406 0 0
14.9113 -11.0968 1.5734 0.1534 0 0
14.8149 -10.5696 1.5406 0.1567 0 0
14.7241 -10.0651 1.5098 0.1601 0 0
14.6318 -9.5767 1.4803 0.1633 0 0
14.4113 -9.0244 1.4394 0.1582 0 8
14.3217 -8.5729 1.4130 0.1611 0 8
14.2382 -8.1393 1.3884 0.1640 0 8
14.1603 -7.7218 1.3654 0.1667 0 8
14.0877 -7.3191 1.3439 0.1694 0 8
14.0198 -6.9301 1.3239 0.1720 0 8
13.8588 -6.5076 1.2961 0.5395 0 19
13.4351 -5.9825 1.2450 0.4440 0 19
13.8428 -5.8339 1.2717 0.1790 0 8
13.7917 -5.4890 1.2566 0.1812 0 8
14.1384 -5.3007 1.2782 0.4705 0 8
14.2236 -5.0093 1.2766 0.1852 0 7
14.1814 -4.6766 1.2641 0.1870 0 7
14.1424 -4.3510 1.2526 0.1887 0 7
14.1064 -4.0318 1.2420 0.1903 0 7
14.0735 -3.7184 1.2323 0.1918 0 7
14.0435 -3.4104 1.2234 0.1932 0 7
14.0161 -3.1072 1.2153 0.1945 0 7
13.9915 -2.8083 1.2081 0.1957 0 7
13.9694 -2.5132 1.2015 0.1967 0 7
13.9499 -2.2216 1.1958 0.1977 0 7
13.9330 -1.9329 1.1908 0.1985 0 7
13.9183 -1.6468 1.1865 0.1992 0 7
13.9061 -1.3629 1.1828 0.1998 0 7
13.8962 -1.0808 1.1799 0.2003 0 7
13.8885 -0.8000 1.1777 0.2007 0 7
13.8832 -0.5204 1.1761 0.2010 0 7
13.8801 -0.2414 1.1752 0.2011 0 7
13.8793 0.0373 1.1749 0.2012 0 7
13.8807 0.3161 1.1754 0.2011 0 7
13.8844 0.5952 1.1764 0.2009 0 7
13.8904 0.8752 1.1782 0.2006 0 7
13.8986 1.1562 1.1806 0.2002 0 7
13.9091 1.4388 1.1837 0.1997 0 7
13.9220 1.7232 1.1875 0.1990 0 7
13.9373 2.0100 1.1921 0.1983 0 7
13.9550 2.2994 1.1973 0.1974 0 7
13.9751 2.5919 1.2032 0.1964 0 7
13.4820 2.7816 1.1654 0.1953 0 8
13.5065 3.0705 1.1725 0.1941 0 8
13.5335 3.3637 1.1805 0.1928 0 8
13.1031 3.5375 1.1489 0.1914 0 19
13.5495 3.9516 1.1948 0.1899 0 19
10.5092 3.2952 0.9324 0.1693 0 9
13.6694 4.5895 1.2206 0.1865 0 8
13.7110 4.9119 1.2329 0.1846 0 8
13.7559 5.2419 1.2462 0.1827 0 8
13.8043 5.5802 1.2604 0.1806 0 8
13.8563 5.9276 1.2758 0.1784 0 8
13.9123 6.2848 1.2923 0.1762 0 8
13.9723 6.6529 1.3100 0.1738 0 8
14.1710 7.0999 1.3417 0.1872 0 0
14.2237 7.4873 1.3607 0.1700 0 0
14.2904 7.8928 1.3820 0.1674 0 0
14.3621 8.3129 1.4048 0.1647 0 0
14.4391 8.7492 1.4292 0.1619 0 0
14.5220 9.2029 1.4554 0.1590 0 0
14.6109 9.6758 1.4835 0.1559 0 0
8.7758 6.0686 0.9032 0.8807 0 11
8.7385 6.3058 0.9122 0.8720 0 11
8.6692 6.5244 0.9185 0.8629 0 11
8.6303 6.7707 0.9286 0.8535 0 11
8.6212 7.0478 0.9426 0.8438 0 11
8.5802 7.3064 0.9540 0.8338 0 11
8.5379 7.5714 0.9660 0.8234 0 11
8.4641 7.8150 0.9752 0.8127 0 11
8.4196 8.0930 0.9886 0.8017 0 11
8.4038 8.4088 1.0064 0.7904 0 11
8.3562 8.7040 1.0214 0.7788 0 11
8.2550 8.9515 1.0308 0.7668 0 11
8.2046 9.2632 1.0475 0.7546 0 11
8.1523 9.5853 1.0652 0.7421 0 11
8.2404 10.0924 1.1030 0.0975 0 11
16.8434 21.4958 2.3118 0.0931 0 0
17.2406 22.9367 2.4290 0.0886 0 0
17.6874 24.5418 2.5608 0.0840 0 0
18.1931 26.3426 2.7101 0.0794 0 0
18.7698 28.3798 2.8803 0.0747 0 0
19.0882 30.1600 3.0216 0.7616 0 11
18.1996 30.0756 2.9759 0.7743 0 11
17.3164 29.9579 2.9292 0.7866 0 11
16.4398 29.8069 2.8816 0.7986 0 11
15.6289 29.7330 2.8436 0.8103 0 11
14.8211 29.6254 2.8042 0.8217 0 11
14.0045 29.4567 2.7611 0.8327 0 11
18.0742 40.0724 3.7213 0.5382 0 1
17.1719 40.2068 3.7011 0.8542 0 1
16.1721 40.0747 3.6583 0.8642 0 1
15.3129 40.2560 3.6460 0.4859 0 1
15.0243 42.0171 3.7774 0.4690 0 1
2.4033 7.1722 0.6403 0.9790 0 9
2.2684 7.2495 0.6430 0.9749 0 9
2.1323 7.3275 0.6460 0.9704 0 9
1.9948 7.4062 0.6493 0.9655 0 9
-30.1770 35.7840 3.9626 0.4097 0 9
-31.0695 35.3763 3.9857 0.4661 0 9
-30.6695 33.5382 3.8472 0.1710 0 9
-32.6393 34.2842 4.0071 0.1762 0 9
-34.0412 34.3487 4.0938 0.2700 0 9
-3.1083 3.0129 0.3665 0.9321 0 5
-31.2731 29.1186 3.6173 0.4371 0 9
-31.6107 28.2697 3.5900 0.1682 0 9
-32.7856 28.1565 3.6584 0.0660 0 9
-27.9440 23.0400 3.0659 0.0739 0 9
-28.8864 22.8586 3.1183 0.3451 0 9
-29.6777 22.5307 3.1542 0.4145 0 9
-30.3323 22.0821 3.1761 0.1588 0 9
-31.4498 21.9433 3.2463 0.0502 0 9
-25.6183 14.9721 2.5119 0.2573 0 9
-25.2798 14.1012 2.4504 0.2638 0 9
-24.5582 13.0592 2.3546 0.1745 0 9
-23.0297 11.6596 2.1851 0.1205 0 9
-24.4370 11.7617 2.2958 0.1147 0 9
-25.1841 11.5046 2.3438 0.3459 0 9
-25.7600 11.1481 2.3761 0.3412 0 9
-26.1697 10.7068 2.3936 0.1554 0 9
-26.6666 10.2902 2.4197 0.3985 0 9
-45.2398 16.4215 4.0742 0.1745 0 9
-41.1536 14.0097 3.6801 0.1405 0 9
-40.4609 11.9844 3.5722 0.0908 0 9
-23.9980 6.5872 2.1066 0.0408 0 9
-43.4940 11.0045 3.7979 0.2938 0 9
-30.4097 7.0477 2.6425 0.4116 0 9
-30.9359 6.5181 2.6763 0.5869 0 9
-24.8932 4.7251 2.1449 0.5288 0 9
-21.7593 3.6793 1.8681 0.0620 0 9
-22.9930 3.4146 1.9678 0.1293 0 9
-23.8410 3.0527 2.0347 0.1250 0 9
-24.7560 2.6659 2.1078 0.1207 0 9
-30.3812 2.0422 2.5776 0.2901 0 9
-29.9792 1.4114 2.5407 0.2943 0 9
-29.1862 0.7874 2.4716 0.1111 0 9
-28.3343 0.1953 2.3986 0.0114 0 9
-29.9355 -0.3948 2.5343 0.3063 0 9
-30.2782 -1.0076 2.5645 0.3027 0 9
-25.7011 14.3670 1.8258 0.1887 0 9
-25.9543 13.8323 1.8237 0.1889 0 9
-26.1473 13.2681 1.8182 0.3230 0 9
-26.0659 12.5753 1.7946 0.1182 0 9
-25.6189 11.7315 1.7473 0.1214 0 9
-23.1152 9.4819 1.5493 0.0273 0 9
-25.4061 9.8305 1.6893 0.4188 0 9
-27.4818 10.0042 1.8136 0.1694 0 9
-41.7800 14.2658 2.7376 0.3952 0 9
-41.0823 13.1127 2.6741 0.4823 0 9
-22.9940 6.8338 1.4875 0.1741 0 9
-23.0439 6.3480 1.4822 0.1747 0 9
-23.0966 5.8664 1.4777 0.1752 0 9
-23.1523 5.3881 1.4741 0.1756 0 9
-23.2110 4.9127 1.4712 0.1760 0 9
-23.2726 4.4396 1.4692 0.1762 0 9
-23.3373 3.9681 1.4679 0.1764 0 9
-30.9288 4.6222 1.9392 0.3267 0 9
-30.8821 3.9831 1.9309 0.2110 0 9
-32.3839 3.5175 2.0199 0.3145 0 9
-24.2245 2.1401 1.5080 0.0211 0 9
-31.8242 1.5275 1.9757 0.1427 0 9
-31.4679 0.8776 1.9521 0.3031 0 9
-30.1257 0.2353 1.8682 0.3370 0 9
-29.6241 -0.3634 1.8371 0.4042 0 9
-29.5652 -0.9566 1.8343 0.3769 0 9
-29.4869 -1.5471 1.8310 0.3514 0 9
-30.6580 -2.2265 1.9061 0.3742 0 9
-33.4513 -3.1057 2.0832 0.5344 0 9
-32.3423 -3.6590 2.0183 0.2799 0 9
-32.2261 -4.3027 2.0161 0.6329 0 9
-32.8685 -5.0621 2.0622 0.3179 0 9
-32.8882 -5.7432 2.0703 0.3166 0 9
-26.6809 -5.2133 1.6858 0.2807 0 9
-36.7439 -7.9486 2.3312 0.0978 0 9
-41.4795 -9.8487 2.6437 0.4593 0 9
-46.7079 -12.0855 2.9917 0.3374 0 9
-46.1089 -12.9235 2.9694 0.1626 0 9
-29.7326 -8.9811 1.9260 0.2052 0 9
-27.6976 -8.9770 1.8055 0.1043 0 9
-29.0453 -10.7204 1.9199 0.8845 0 9
-25.9537 -10.7818 1.7428 0.0763 0 9
-26.0848 -11.4556 1.7667 0.1529 0 9
-29.5848 -13.7077 2.0219 0.0626 0 9
-30.0617 -14.6687 2.0742 0.4284 0 9
-30.7410 -15.7720 2.1425 0.3270 0 9
-21.6389 -11.6565 1.5241 0.9313 0 9
-21.4919 -12.1402 1.5307 0.6039 0 9
-40.0561 -23.6999 2.8861 0.1114 0 9
-26.1402 -16.9187 1.9308 0.0453 0 9
-33.4182 -22.5940 2.5015 0.2155 0 9
-28.4982 -20.1129 2.1629 0.3992 0 9
-27.8639 -20.5155 2.1456 0.4330 0 9
-27.4538 -21.0764 2.1462 0.3991 0 9
-27.7545 -22.2068 2.2041 0.1645 0 9
-30.0881 -25.0811 2.4290 0.2106 0 9
-29.1200 -25.2820 2.3913 0.0938 0 9
-32.6320 -30.7132 2.7788 0.4258 0 9
-23.1359 -22.6687 2.0085 0.4012 0 9
-22.1520 -22.5939 1.9621 0.2404 0 9
-19.1210 -20.3023 1.7294 0.1927 0 9
-17.9471 -19.8392 1.6589 0.1062 0 9
-18.4617 -21.2505 1.7456 0.4167 0 9
-17.6186 -21.1219 1.7056 0.2121 0 9
-17.0723 -21.3231 1.6939 0.2827 0 9
-16.7760 -21.8375 1.7076 0.2170 0 9
-20.4174 -27.7117 2.1345 0.5028 0 9
-19.3449 -27.3912 2.0795 0.1564 0 9
-18.1354 -26.8047 2.0069 0.1620 0 9
-20.0627 -30.9755 2.2885 0.2989 0 9
-21.7868 -35.1652 2.5652 0.3913 0 9
-21.0537 -35.5571 2.5624 0.1590 0 9
-20.6603 -36.5468 2.6033 0.1021 0 9
-21.1085 -39.1539 2.7582 0.5596 0 9
-19.8993 -38.7538 2.7014 0.2175 0 9
-19.3232 -39.5675 2.7305 0.4739 0 9
-18.2378 -39.3281 2.6882 0.1619 0 9
-17.6704 -40.2000 2.7230 0.3700 0 9
-16.4865 -39.6489 2.6627 0.2926 0 9
-15.2874 -38.9531 2.5948 0.3002 0 9
-1.8958 -25.9862 1.6157 0.5463 0 5
10.0848 -33.9733 2.1976 0.8136 0 9
10.7509 -33.7207 2.1947 0.9300 0 9
5.0482 -14.8000 0.9697 0.9210 0 9
5.3028 -14.5818 0.9622 0.9282 0 9
8.8480 -22.8891 1.5217 0.2365 0 1
8.6248 -21.0452 1.4104 0.2551 0 1
8.6411 -19.9347 1.3473 0.9611 0 1
9.1416 -19.9803 1.3625 0.9554 0 1
5.3823 -11.1661 0.7686 0.7791 0 9
5.7193 -11.2804 0.7843 0.7656 0 9
5.7756 -10.8458 0.7620 0.7285 0 9
6.0795 -10.8841 0.7731 0.5074 0 9
6.2941 -10.7551 0.7727 0.9754 0 9
6.5072 -10.6243 0.7726 0.8043 0 9
6.8306 -10.6653 0.7854 0.7430 0 9
7.1165 -10.6354 0.7935 0.9799 0 9
10.4446 -14.9506 1.1309 0.8894 0 10
10.8398 -14.8711 1.1412 0.7532 0 10
11.2479 -14.7975 1.1526 0.8035 0 10
13.9775 -17.6419 1.3957 0.1560 0 0
13.8218 -16.7435 1.3463 0.1618 0 0
13.5897 -15.8050 1.2925 0.1576 0 0
13.4293 -14.9985 1.2484 0.1892 0 0
13.3112 -14.2791 1.2105 0.1952 0 0
13.2014 -13.6033 1.1754 0.2010 0 0
13.0993 -12.9667 1.1429 0.2067 0 0
13.0139 -12.3749 1.1136 0.2306 0 0
13.1214 -11.9849 1.1020 0.2331 0 0
13.2281 -11.6039 1.0912 0.2354 0 0
13.2285 -11.1422 1.0725 0.1596 0 0
13.1570 -10.6380 1.0492 0.1633 0 0
13.0984 -10.1626 1.0280 0.1667 0 0
13.0439 -9.7072 1.0082 0.1700 0 0
12.8503 -9.1681 0.9789 0.1706 0 8
12.7883 -8.7418 0.9606 0.1739 0 8
12.7304 -8.3322 0.9435 0.1770 0 8
12.6761 -7.9378 0.9275 0.1801 0 8
12.6252 -7.5575 0.9125 0.1831 0 8
12.5776 -7.1900 0.8984 0.1859 0 8
12.1079 -6.6026 0.8552 0.1887 0 19
12.0676 -6.2696 0.8433 0.1914 0 19
12.3882 -6.1235 0.8569 0.5563 0 19
12.4155 -5.8299 0.8506 0.1964 0 8
12.4533 -5.5453 0.8453 0.5539 0 8
12.8218 -5.4036 0.8628 0.2010 0 7
12.7909 -5.0906 0.8537 0.2031 0 7
12.7620 -4.7847 0.8452 0.2052 0 7
12.7353 -4.4852 0.8373 0.2071 0 7
12.7104 -4.1915 0.8299 0.2090 0 7
12.6874 -3.9034 0.8232 0.2107 0 7
12.6662 -3.6201 0.8169 0.2123 0 7
12.6467 -3.3414 0.8112 0.2138 0 7
12.6290 -3.0669 0.8059 0.2152 0 7
12.6128 -2.7961 0.8011 0.2165 0 7
12.5981 -2.5286 0.7968 0.2176 0 7
12.5851 -2.2642 0.7929 0.2187 0 7
12.5735 -2.0024 0.7895 0.2197 0 7
12.5633 -1.7429 0.7865 0.2205 0 7
12.5546 -1.4855 0.7840 0.2212 0 7
12.5473 -1.2297 0.7818 0.2218 0 7
12.5414 -0.9754 0.7801 0.2223 0 7
12.5369 -0.7222 0.7787 0.2227 0 7
12.5337 -0.4698 0.7778 0.2230 0 7
12.5318 -0.2179 0.7772 0.2231 0 7
12.5314 0.0337 0.7771 0.2232 0 7
12.5322 0.2854 0.7773 0.2231 0 7
12.5344 0.5374 0.7780 0.2229 0 7
12.5380 0.7900 0.7790 0.2226 0 7
12.5429 1.0434 0.7805 0.2222 0 7
12.5492 1.2981 0.7823 0.2217 0 7
12.5568 1.5543 0.7846 0.2210 0 7
12.5659 1.8122 0.7873 0.2203 0 7
12.5764 2.0723 0.7904 0.2194 0 7
12.5885 2.3347 0.7939 0.2184 0 7
12.6019 2.6000 0.7979 0.2173 0 7
12.1521 2.7626 0.7728 0.2161 0 8
12.1680 3.0244 0.7775 0.2148 0 8
11.7724 3.1783 0.7562 0.2134 0 19
12.1634 3.5473 0.7857 0.2119 0 19
10.4560 3.2785 0.6795 0.1704 0 9
12.2483 4.1123 0.8012 0.2085 0 8
12.2727 4.3966 0.8084 0.2066 0 8
12.2990 4.6867 0.8162 0.2047 0 8
12.3274 4.9831 0.8245 0.2026 0 8
12.3577 5.2865 0.8335 0.2004 0 8
12.3903 5.5973 0.8431 0.1981 0 8
12.4251 5.9162 0.8534 0.1957 0 8
12.4623 6.2438 0.8644 0.1932 0 8
12.5021 6.5810 0.8761 0.1907 0 8
12.6544 6.9892 0.8964 0.1894 0 0
12.6940 7.3474 0.9095 0.1866 0 0
12.7363 7.7173 0.9234 0.1838 0 0
12.7817 8.1001 0.9383 0.1809 0 0
12.8304 8.4966 0.9542 0.1779 0 0
8.8392 6.1125 0.6664 0.8758 0 11
8.3712 6.0406 0.6401 0.4717 0 2
8.7332 6.5726 0.6778 0.8580 0 11
8.6947 6.8213 0.6853 0.8486 0 11
8.6864 7.1010 0.6957 0.8389 0 11
8.6458 7.3623 0.7042 0.8288 0 11
8.6040 7.6300 0.7131 0.8184 0 11
8.5305 7.8763 0.7200 0.8077 0 11
8.4865 8.1573 0.7300 0.7967 0 11
8.4715 8.4767 0.7431 0.7854 0 11
8.4247 8.7752 0.7543 0.7737 0 11
8.3463 9.0505 0.7634 0.7618 0 11
8.3263 9.4006 0.7787 0.7495 0 11
8.2744 9.7288 0.7920 0.7369 0 11
8.2207 10.0684 0.8060 0.7241 0 11
8.1358 10.3830 0.8180 0.7110 0 11
8.1070 10.7855 0.8367 0.6976 0 11
8.0466 11.1651 0.8534 0.6839 0 11
7.9552 11.5188 0.8681 0.6699 0 11
7.9180 11.9722 0.8901 0.6557 0 11
7.8000 12.3245 0.9044 0.6412 0 11
7.7285 12.7718 0.9257 0.6265 0 11
7.7622 13.4291 0.9618 0.0820 0 11
15.9889 28.9895 2.0529 0.0763 0 0
15.5929 29.6645 2.0782 0.8125 0 11
14.8055 29.5942 2.0520 0.8239 0 11
14.0204 29.4901 2.0249 0.8349 0 11
13.2392 29.3523 1.9968 0.8457 0 11
12.5095 29.2898 1.9750 0.8560 0 11
11.7665 29.1572 1.9498 0.8660 0 11
11.0449 29.0358 1.9264 0.8757 0 11
15.5432 43.4684 2.8626 0.1075 0 1
2.4110 7.1950 0.4706 0.9775 0 9
2.2757 7.2726 0.4726 0.9734 0 9
2.1391 7.3510 0.4748 0.9689 0 9
2.0006 7.4278 0.4770 0.9832 0 9
-7.3766 13.5084 0.9544 0.7343 0 5
-29.2990 36.1933 2.8876 0.4202 0 9
-29.5722 35.0669 2.8445 0.0989 0 9
-30.8298 35.1033 2.8971 0.4794 0 9
-33.3184 36.4350 3.0616 0.3710 0 9
-28.7156 30.1626 2.5825 0.2175 0 9
-29.3710 29.6361 2.5874 0.3850 0 9
-3.0975 3.0024 0.2675 0.9369 0 5
-26.6171 24.7834 2.2552 0.2978 0 9
-27.5081 24.6006 2.2884 0.2750 0 9
-28.1439 24.1702 2.3005 0.3596 0 9
-28.6315 23.6069 2.3011 0.4661 0 9
-28.8362 22.8188 2.2803 0.4542 0 9
-29.7646 22.5968 2.3173 0.4443 0 9
-30.5203 22.2189 2.3410 0.1744 0 9
-25.4615 14.8805 1.8288 0.1884 0 9
-25.7124 14.3426 1.8257 0.1887 0 9
-25.9661 13.8079 1.8237 0.1889 0 9
-26.1543 13.2416 1.8179 0.3230 0 9
-26.0448 12.5356 1.7924 0.1184 0 9
-25.5991 11.6941 1.7452 0.1216 0 9
-23.3303 9.5452 1.5631 0.0271 0 9
-25.4252 9.8111 1.6899 0.4186 0 9
-27.5752 10.0095 1.8191 0.1688 0 9
-41.7834 14.2241 2.7370 0.3953 0 9
-41.1050 13.0785 2.6748 0.4821 0 9
-22.9964 6.8115 1.4872 0.1741 0 9
-23.0463 6.3259 1.4820 0.1747 0 9
-23.0993 5.8444 1.4775 0.1752 0 9
-23.1550 5.3663 1.4739 0.1757 0 9
-23.2137 4.8910 1.4711 0.1760 0 9
-23.2755 4.4180 1.4691 0.1762 0 9
-23.3620 3.9503 1.4692 0.1092 0 9
-30.9200 4.5919 1.9384 0.3268 0 9
-30.9338 3.9610 1.9338 0.2107 0 9
-32.4234 3.4917 2.0222 0.3141 0 9
-42.6384 3.7275 2.6542 0.3445 0 9
-31.7364 1.4941 1.9701 0.1431 0 9
-31.4847 0.8492 1.9531 0.3029 0 9
-30.1146 0.2076 1.8675 0.3371 0 9
-29.6260 -0.3906 1.8373 0.4042 0 9
-29.5491 -0.9832 1.8334 0.3771 0 9
-24.5041 13.6980 1.1070 0.2233 0 9
-25.3345 13.5019 1.1320 0.2184 0 9
-26.0023 13.1945 1.1498 0.3605 0 9
-26.6421 12.8532 1.1664 0.3554 0 9
-26.6671 12.2115 1.1565 0.2464 0 9
-26.4302 11.4669 1.1360 0.0987 0 9
-25.9770 10.6559 1.1071 0.1013 0 9
-45.9980 17.7982 1.9448 0.2148 0 9
-45.7841 16.6667 1.9212 0.4294 0 9
-39.7690 13.5791 1.6570 0.4157 0 9
-26.9391 8.5985 1.1150 0.0779 0 9
-41.2078 12.2468 1.6951 0.4576 0 9
-20.4774 5.6410 0.8375 0.1968 0 9
-20.4980 5.2063 0.8339 0.1346 0 9
-29.8680 6.9511 1.2092 0.2770 0 9
-29.4462 6.2324 1.1868 0.1459 0 9
-24.4770 4.6693 0.9825 0.5392 0 9
-24.8063 4.2179 0.9922 0.3816 0 9
-47.1726 7.0496 1.8808 0.2294 0 9
-41.6833 5.3763 1.6573 0.6200 0 9
-30.4288 3.3051 1.2069 0.2436 0 9
-41.2511 3.6444 1.6329 0.2549 0 9
-32.1897 2.1935 1.2722 0.3176 0 9
-31.8990 1.5310 1.2593 0.3209 0 9
-31.6154 0.8818 1.2471 0.3240 0 9
-30.3277 0.2369 1.1959 0.2379 0 9
-29.1453 -0.3575 1.1493 0.2476 0 9
-29.0764 -0.9408 1.1471 0.3171 0 9
-29.0765 -1.5256 1.1481 0.3169 0 9
-29.0780 -2.1118 1.1496 0.3165 0 9
-31.9674 -2.9679 1.2659 0.4266 0 9
-31.8982 -3.6088 1.2658 0.4266 0 9
-31.4613 -4.2006 1.2516 0.2748 0 9
-30.6320 -4.7177 1.2221 0.2814 0 9
-29.7111 -5.1884 1.1892 0.1420 0 9
-26.6097 -5.1994 1.0691 0.5721 0 9
-24.3589 -5.2694 0.9827 0.1533 0 9
-24.6013 -5.8412 0.9970 0.1469 0 9
-24.7119 -6.3942 1.0065 0.1455 0 9
-45.1743 -12.6616 1.8499 0.2633 0 9
-47.6878 -14.4047 1.9643 0.1412 0 9
-47.0707 -15.2560 1.9511 0.1422 0 9
-28.8827 -10.6603 1.2140 0.8905 0 9
-30.7551 -13.5067 1.3245 0.4266 0 9
-29.6746 -13.7493 1.2896 0.3317 0 9
-29.3271 -14.3103 1.2868 0.0561 0 9
-29.5188 -15.1449 1.3082 0.2436 0 9
-21.6646 -11.6704 0.9703 0.3092 0 9
-21.2723 -12.0162 0.9634 0.6109 0 9
-39.6411 -24.5420 1.8384 0.3867 0 9
-35.4293 -22.9310 1.6641 0.0513 0 9
-33.7391 -22.8109 1.6059 0.3077 0 9
-27.7952 -19.6167 1.3414 0.0735 0 9
-26.6049 -19.5884 1.3027 0.8278 0 9
-27.3274 -20.9793 1.3584 0.4696 0 9
-26.8658 -21.4958 1.3567 0.4702 0 9
-26.7711 -22.3162 1.3742 0.1573 0 9
-27.3543 -23.7490 1.4284 0.1326 0 9
-31.6835 -29.8206 1.7157 0.1833 0 9
-18.9029 -18.5211 1.0435 0.1179 0 9
-21.8020 -22.2369 1.2279 0.2037 0 9
-21.4841 -22.8112 1.2356 0.2116 0 9
-18.4431 -21.2291 1.1089 0.2451 0 9
-17.2486 -20.6784 1.0618 0.1741 0 9
-20.6385 -25.7772 1.3021 0.1530 0 9
-16.3641 -21.3014 1.0592 0.1486 0 9
-16.0863 -21.8335 1.0694 0.2337 0 9
-16.0889 -22.7810 1.0997 0.0881 0 9
-17.4475 -25.7882 1.2277 0.0615 0 9
-18.7390 -28.9320 1.3592 0.0340 0 9
-19.5892 -31.6182 1.4666 0.2148 0 9
-21.4361 -36.2029 1.6590 0.5473 0 9
-21.5630 -38.1435 1.7277 0.3366 0 9
-20.6155 -38.2395 1.7129 0.4804 0 9
-20.9603 -40.8202 1.8093 0.9805 0 9
7.9166 -34.0676 1.3791 0.5754 0 9
8.5768 -33.8144 1.3756 0.3563 0 9
9.2962 -33.7891 1.3818 0.9312 0 9
9.9811 -33.6239 1.3830 0.8453 0 9
10.6973 -33.5525 1.3886 0.8789 0 9
11.3919 -33.3988 1.3915 0.9812 0 2
5.3265 -14.6472 0.6146 0.9251 0 9
9.0925 -23.5215 0.9944 0.2304 0 1
4.6644 -11.3818 0.4850 0.7578 0 9
4.8277 -11.1376 0.4786 0.7467 0 9
5.0237 -10.9803 0.4761 0.6374 0 9
5.2662 -10.9249 0.4782 0.9749 0 9
5.5241 -10.8954 0.4817 0.9365 0 9
5.7533 -10.8040 0.4826 0.9341 0 9
6.0102 -10.7600 0.4860 0.9618 0 9
6.2745 -10.7217 0.4898 0.9155 0 9
6.5151 -10.6371 0.4918 0.8137 0 9
6.7878 -10.5985 0.4963 0.2814 0 9
7.1199 -10.6405 0.5048 0.9168 0 9
10.4008 -14.8879 0.7161 0.6912 0 10
7.4166 -10.1750 0.4965 0.4616 0 2
11.2851 -14.8466 0.7354 0.1308 0 8
11.2059 -14.1437 0.7115 0.1515 0 8
11.1731 -13.5350 0.6921 0.1552 0 8
11.1984 -13.0240 0.6773 0.1843 0 8
11.2506 -12.5653 0.6651 0.1991 0 8
11.2732 -12.0929 0.6519 0.1881 0 8
11.2933 -11.6371 0.6394 0.1899 0 8
11.3308 -11.2161 0.6287 0.2081 0 8
11.3793 -10.8205 0.6192 0.2166 0 8
11.4346 -10.4442 0.6107 0.2197 0 8
11.4869 -10.0764 0.6025 0.2199 0 8
11.5365 -9.7171 0.5948 0.2227 0 8
11.5115 -9.3075 0.5837 0.1822 0 8
11.4739 -8.9022 0.5726 0.1857 0 8
11.4387 -8.5126 0.5622 0.1891 0 8
11.4056 -8.1373 0.5525 0.1925 0 8
11.3745 -7.7754 0.5433 0.1957 0 8
11.3453 -7.4256 0.5347 0.1989 0 8
11.3178 -7.0873 0.5266 0.2019 0 8
11.2920 -6.7594 0.5189 0.2049 0 8
11.2677 -6.4412 0.5118 0.2078 0 8
11.2449 -6.1320 0.5050 0.2105 0 8
11.2235 -5.8311 0.4987 0.2132 0 8
11.4960 -5.6825 0.5057 0.5636 0 8
11.6124 -5.4528 0.5059 0.2182 0 7
11.5941 -5.1627 0.5004 0.2206 0 7
11.5769 -4.8789 0.4954 0.2229 0 7
11.5608 -4.6011 0.4906 0.2250 0 7
11.5459 -4.3287 0.4862 0.2271 0 7
11.5319 -4.0614 0.4821 0.2290 0 7
11.5189 -3.7986 0.4783 0.2308 0 7
11.5069 -3.5402 0.4747 0.2326 0 7
11.4958 -3.2856 0.4715 0.2342 0 7
11.4856 -3.0347 0.4684 0.2357 0 7
11.4763 -2.7870 0.4657 0.2371 0 7
11.4678 -2.5422 0.4632 0.2384 0 7
11.4601 -2.3002 0.4609 0.2395 0 7
11.4532 -2.0605 0.4589 0.2406 0 7
11.4471 -1.8230 0.4571 0.2415 0 7
11.4417 -1.5873 0.4555 0.2424 0 7
11.4372 -1.3532 0.4542 0.2431 0 7
11.4332 -1.1205 0.4530 0.2437 0 7
11.4302 -0.8890 0.4521 0.2442 0 7
11.4278 -0.6583 0.4514 0.2446 0 7
11.4261 -0.4283 0.4509 0.2449 0 7
5.7379 -0.0998 0.2263 0.2971 184 4
5.6751 0.0153 0.2238 0.8943 184 4
11.4253 0.2602 0.4506 0.2450 0 7
11.4264 0.4898 0.4510 0.2448 0 7
11.4283 0.7200 0.4515 0.2445 0 7
11.4309 0.9509 0.4523 0.2441 0 7
11.4343 1.1828 0.4533 0.2436 0 7
11.4383 1.4158 0.4545 0.2429 0 7
11.4431 1.6503 0.4559 0.2422 0 7
11.4487 1.8864 0.4575 0.2413 0 7
11.4550 2.1245 0.4594 0.2403 0 7
11.4621 2.3648 0.4615 0.2392 0 7
11.0480 2.5116 0.4468 0.2380 0 8
11.0564 2.7481 0.4492 0.2367 0 8
11.0656 2.9874 0.4520 0.2353 0 8
10.7200 3.1264 0.4403 0.1063 0 19
10.4035 3.2621 0.4299 0.1715 0 9
10.7213 3.5997 0.4460 0.2304 0 19
11.1109 3.9804 0.4654 0.2285 0 8
11.1246 4.2392 0.4694 0.2265 0 8
11.1389 4.5027 0.4737 0.2245 0 8
11.1547 4.7718 0.4784 0.2223 0 8
11.1715 5.0467 0.4834 0.2200 0 8
11.1895 5.3278 0.4887 0.2176 0 8
11.2087 5.6157 0.4944 0.2151 0 8
11.2292 5.9109 0.5004 0.2125 0 8
11.2509 6.2140 0.5068 0.2098 0 8
11.3974 6.5969 0.5192 0.2216 0 0
11.3961 6.9052 0.5254 0.2057 0 0
11.4173 7.2354 0.5330 0.2027 0 0
11.4400 7.5759 0.5410 0.1997 0 0
8.9035 6.1569 0.4268 0.8705 0 11
8.3792 6.0465 0.4075 0.8599 0 2
7.9389 5.9747 0.3917 0.4906 0 2
7.5759 5.9435 0.3797 0.8413 0 2
8.7523 7.1549 0.4458 0.8335 0 11
8.7122 7.4188 0.4512 0.8235 0 11
8.6710 7.6893 0.4570 0.8131 0 11
8.5978 7.9384 0.4614 0.8023 0 11
8.5851 8.2521 0.4696 0.7913 0 11
8.5403 8.5454 0.4764 0.7799 0 11
8.4940 8.8475 0.4836 0.7683 0 11
8.4161 9.1262 0.4895 0.7563 0 11
8.3970 9.4805 0.4994 0.7440 0 11
8.3460 9.8129 0.5080 0.7315 0 11
8.2930 10.1570 0.5170 0.7186 0 11
8.2087 10.4761 0.5248 0.7055 0 11
8.1811 10.8841 0.5369 0.6920 0 11
8.1217 11.2692 0.5477 0.6783 0 11
8.0310 11.6285 0.5572 0.6644 0 11
7.9951 12.0886 0.5715 0.6501 0 11
7.9275 12.5258 0.5845 0.6357 0 11
7.8285 12.9370 0.5962 0.6209 0 11
7.7821 13.4635 0.6132 0.6059 0 11
7.6763 13.9179 0.6267 0.5907 0 11
7.6213 14.4992 0.6459 0.5753 0 11
7.5341 15.0599 0.6640 0.5596 0 11
7.4151 15.5970 0.6810 0.5437 0 11
7.3438 16.2821 0.7043 0.5275 0 11
7.1941 16.8445 0.7222 0.5112 0 11
4.4416 11.0063 0.4680 0.6940 0 19
7.2142 18.9657 0.8001 0.0628 0 11
10.3621 28.9783 1.2136 0.8869 0 11
2.4186 7.2178 0.3002 0.9755 0 9
2.2829 7.2958 0.3014 0.9714 0 9
2.1459 7.3745 0.3029 0.9669 0 9
4.5947 31.9929 1.2745 0.8146 0 20
-29.1193 35.9711 1.8249 0.5203 0 9
-28.9156 34.2883 1.7686 0.1262 0 9
-26.2647 29.9055 1.5695 0.3193 0 9
-27.0621 29.5934 1.5813 0.3170 0 9
-28.6704 30.1150 1.6396 0.4227 0 9
-3.0480 3.0755 0.1707 0.2151 0 5
-3.0936 2.9986 0.1700 0.4996 0 5
-30.4148 28.3195 1.6387 0.2129 0 9
-31.6333 28.2899 1.6734 0.4711 0 9
-33.9524 29.1587 1.7648 0.1347 0 9
-27.9811 23.0706 1.4300 0.2599 0 9
-28.6102 22.6399 1.4386 0.2028 0 9
-29.2075 22.1738 1.4460 0.2017 0 9
-29.4064 21.4081 1.4342 0.3832 0 9
-32.1142 18.7683 1.4667 0.4262 0 9
-24.5413 13.6892 1.1081 0.2231 0 9
-25.3733 13.4927 1.1332 0.2181 0 9
-26.0311 13.1791 1.1505 0.3603 0 9
-26.6585 12.8310 1.1666 0.2443 0 9
-26.6675 12.1822 1.1561 0.2465 0 9
-26.4089 11.4289 1.1347 0.0988 0 9
-28.1187 11.5042 1.1980 0.0856 0 9
-45.9506 17.7314 1.9421 0.2151 0 9
-45.8213 16.6326 1.9221 0.4291 0 9
-39.7726 13.5396 1.6566 0.4158 0 9
-27.0658 8.6116 1.1200 0.0775 0 9
-41.2659 12.2229 1.6970 0.4570 0 9
-20.4798 5.6215 0.8374 0.1968 0 9
-20.4885 5.1838 0.8333 0.1347 0 9
-29.8452 6.9168 1.2080 0.2772 0 9
-29.4381 6.2025 1.1863 0.1460 0 9
-24.4476 4.6405 0.9812 0.5399 0 9
-24.8651 4.2045 0.9944 0.3808 0 9
-47.1080 6.9958 1.8779 0.2297 0 9
-41.6893 5.3382 1.6573 0.6199 0 9
-30.4809 3.2825 1.2088 0.2432 0 9
-41.3312 3.6132 1.6360 0.2545 0 9
-32.1763 2.1629 1.2716 0.3177 0 9
-31.8858 1.5011 1.2587 0.3210 0 9
-31.6026 0.8524 1.2466 0.3241 0 9
-30.2715 0.2086 1.1937 0.2384 0 9
-29.0934 -0.3836 1.1473 0.2480 0 9
-29.0764 -0.9675 1.1471 0.3171 0 9
-31.4089 17.5576 0.6078 0.4431 0 9
-32.2486 17.1865 0.6172 0.3986 0 9
-23.8526 12.1037 0.4518 0.2345 0 9
-24.6312 11.8831 0.4620 0.2294 0 9
-25.4464 11.6526 0.4728 0.2241 0 9
-26.2158 11.3739 0.4827 0.2005 0 9
-44.4884 18.2492 0.8123 0.5438 0 9
-45.0994 17.4505 0.8169 0.4637 0 9
-37.6711 13.7132 0.6771 0.0232 0 9
-39.0279 13.3261 0.6966 0.0225 0 9
-38.9355 12.4275 0.6904 0.0877 0 9
-39.9253 11.8657 0.7035 0.4198 0 9
-40.7394 11.2226 0.7138 0.3435 0 9
-41.2274 10.4713 0.7185 0.4250 0 9
-27.0533 6.2960 0.4692 0.0452 0 9
-27.6755 5.8577 0.4779 0.0673 0 9
-24.2602 4.6280 0.4172 0.5443 0 9
-24.6943 4.1988 0.4231 0.3836 0 9
-31.0437 4.6394 0.5302 0.3643 0 9
-31.0942 4.0105 0.5296 0.3647 0 9
-40.0922 4.3547 0.6813 0.2425 0 9
-41.1771 3.6378 0.6983 0.2468 0 9
-29.2404 1.9925 0.4951 0.2042 0 9
-28.7388 1.3794 0.4860 0.1404 0 9
-46.6595 1.3013 0.7885 0.4304 0 9
-29.1031 0.2273 0.4916 0.2712 0 9
-30.0834 -0.3690 0.5082 0.3641 0 9
-30.0287 -0.9716 0.5075 0.3646 0 9
-29.9688 -1.5724 0.5069 0.3650 0 9
-29.8880 -2.1706 0.5062 0.2197 0 9
-30.2407 -2.8077 0.5130 0.1418 0 9
-30.0887 -3.4040 0.5115 0.0771 0 9
-30.0480 -4.0119 0.5121 0.1682 0 9
-29.4093 -4.5293 0.5026 0.1713 0 9
-28.6030 -4.9949 0.4904 0.0773 0 9
-26.3781 -5.1542 0.4540 0.5775 0 9
-31.9293 -6.9070 0.5518 0.2380 0 9
-40.4786 -9.6110 0.7028 0.3280 0 9
-40.9501 -10.5958 0.7145 0.6426 0 9
-45.7347 -12.8187 0.8023 0.4112 0 9
-45.5248 -13.7513 0.8033 0.2791 0 9
-28.7221 -10.6011 0.5172 0.8960 0 9
-29.3216 -11.4963 0.5320 0.0762 0 9
-30.1357 -13.2347 0.5560 0.4583 0 9
-29.5188 -13.6770 0.5496 0.3947 0 9
-28.2590 -13.7891 0.5312 0.0744 0 9
-29.1918 -14.9772 0.5542 0.2262 0 9
-30.7695 -16.5753 0.5904 0.5019 0 9
-21.0721 -11.9030 0.4088 0.9476 0 9
-30.6870 -18.1566 0.6023 0.3287 0 9
-28.8362 -17.8527 0.5729 0.1000 0 9
-33.3157 -21.5630 0.6704 0.2236 0 9
-27.5374 -18.6180 0.5615 0.1183 0 9
-26.8959 -18.9821 0.5561 0.2059 0 9
-26.3965 -19.4350 0.5537 0.8349 0 9
-26.8612 -20.6214 0.5720 0.2000 0 9
-27.1777 -21.7453 0.5879 0.4900 0 9
-26.7134 -22.2681 0.5874 0.4904 0 9
-25.4593 -22.1038 0.5695 0.0754 0 9
-23.4948 -21.2402 0.5350 0.1474 0 9
-35.0468 -32.9861 0.8130 0.0927 0 9
-30.9732 -30.3474 0.7325 0.5169 0 9
-22.8137 -23.2688 0.5505 0.6871 0 9
-24.2795 -25.7794 0.5982 0.0947 0 9
-18.0636 -19.9678 0.4548 0.2561 0 9
-17.9366 -22.4027 0.4848 0.6536 0 9
-22.2655 -28.9833 0.6174 0.2980 0 9
-20.9704 -28.4623 0.5972 0.1590 0 9
-20.8278 -30.7843 0.6279 0.8485 0 9
-22.3936 -34.5746 0.6959 0.3330 0 9
-21.4983 -34.6997 0.6896 0.5033 0 9
-20.7311 -35.0123 0.6873 0.5049 0 9
-19.9297 -35.2544 0.6841 0.1788 0 9
-19.0883 -35.4072 0.6795 0.1800 0 9
5.1426 -34.4886 0.5890 0.8694 0 9
5.8179 -34.2838 0.5874 0.6718 0 9
6.5157 -34.2166 0.5884 0.9980 0 9
7.2030 -34.0869 0.5885 0.8410 0 9
7.8786 -33.9042 0.5880 0.7424 0 9
8.6052 -33.9264 0.5912 0.7906 0 9
9.2763 -33.7168 0.5907 0.9908 0 2
3.4642 -11.6704 0.2056 0.8198 0 9
10.7196 -33.6223 0.5961 0.9185 0 9
3.8180 -11.1937 0.1998 0.4823 0 9
4.0291 -11.0798 0.1991 0.5064 0 9
4.2391 -10.9663 0.1986 0.7036 0 9
4.5009 -10.9829 0.2005 0.3132 0 9
4.7549 -10.9697 0.2019 0.7137 0 9
5.0127 -10.9563 0.2035 0.8175 0 9
5.2349 -10.8601 0.2036 0.7945 0 9
5.5177 -10.8827 0.2061 0.7929 0 9
5.7490 -10.7959 0.2066 0.3252 0 9
6.0250 -10.7865 0.2087 0.9745 0 9
6.2834 -10.7369 0.2101 0.7476 0 9
6.5361 -10.6713 0.2114 0.8769 0 9
6.8238 -10.6548 0.2137 0.4165 0 9
6.8961 -10.3060 0.2095 0.8959 0 2
7.1815 -10.2798 0.2118 0.4384 0 2
7.5900 -10.4128 0.2177 0.4555 0 2
7.9062 -10.4013 0.2207 0.9674 0 20
8.2780 -10.4482 0.2252 0.3336 0 20
9.9850 -12.0957 0.2650 0.1965 0 8
10.0261 -11.6605 0.2598 0.2004 0 8
10.0884 -11.2672 0.2555 0.2194 0 8
10.1531 -10.8914 0.2515 0.2286 0 8
10.2209 -10.5320 0.2479 0.2319 0 8
7.0092 -6.9383 0.1666 0.9534 21 5
10.3453 -9.8374 0.2412 0.2356 0 8
10.3349 -9.4397 0.2365 0.1928 0 8
10.3194 -9.0523 0.2319 0.1966 0 8
10.3049 -8.6798 0.2276 0.2003 0 8
10.2912 -8.3208 0.2236 0.2039 0 8
10.2783 -7.9746 0.2198 0.2074 0 8
10.2662 -7.6400 0.2162 0.2109 0 8
10.2547 -7.3162 0.2128 0.2142 0 8
10.2439 -7.0025 0.2096 0.2175 0 8
10.2338 -6.6982 0.2066 0.2206 0 8
10.2242 -6.4024 0.2038 0.2237 0 8
10.2152 -6.1148 0.2011 0.2267 0 8
10.2607 -5.8655 0.1997 0.6426 0 8
10.5888 -5.7742 0.2037 0.2323 0 7
10.5810 -5.4972 0.2014 0.2350 0 7
10.5736 -5.2266 0.1993 0.2375 0 7
10.5666 -4.9617 0.1972 0.2400 0 7
10.5601 -4.7023 0.1953 0.2424 0 7
10.5540 -4.4479 0.1935 0.2446 0 7
10.5483 -4.1981 0.1918 0.2468 0 7
10.5429 -3.9527 0.1902 0.2488 0 7
10.5379 -3.7113 0.1887 0.2508 0 7
10.5333 -3.4736 0.1874 0.2526 0 7
10.5290 -3.2393 0.1861 0.2543 0 7
10.5250 -3.0081 0.1849 0.2559 0 7
10.5214 -2.7799 0.1838 0.2574 0 7
10.5180 -2.5543 0.1828 0.2588 0 7
10.5149 -2.3310 0.1819 0.2601 0 7
10.5121 -2.1099 0.1811 0.2613 0 7
10.5096 -1.8908 0.1804 0.2624 0 7
10.5075 -1.6733 0.1797 0.2633 0 7
10.5055 -1.4574 0.1792 0.2642 0 7
10.5038 -1.2428 0.1787 0.2649 0 7
10.5025 -1.0293 0.1783 0.2655 0 7
10.5013 -0.8168 0.1779 0.2660 0 7
10.5004 -0.6049 0.1777 0.2664 0 7
5.5761 -0.2090 0.0943 0.8726 184 4
5.5809 -0.0971 0.0943 0.3906 184 4
5.5390 0.0149 0.0936 0.6387 184 4
5.5708 0.1268 0.0941 0.7800 184 4
6.3689 0.2730 0.1077 0.2660 184 10
10.5007 0.6616 0.1777 0.2663 0 7
10.5016 0.8736 0.1780 0.2659 0 7
10.5028 1.0864 0.1784 0.2653 0 7
10.5043 1.3002 0.1788 0.2647 0 7
10.5060 1.5151 0.1793 0.2639 0 7
10.5080 1.7314 0.1799 0.2631 0 7
10.5104 1.9493 0.1806 0.2621 0 7
10.5129 2.1690 0.1813 0.2610 0 7
10.1288 2.3026 0.1755 0.2598 0 8
10.1319 2.5183 0.1764 0.2585 0 8
10.1351 2.7362 0.1773 0.2571 0 8
9.8071 2.8602 0.1726 0.2969 0 19
10.1077 3.1693 0.1789 0.2539 0 19
10.1119 3.3950 0.1802 0.2521 0 19
9.8066 3.5131 0.1760 0.2503 0 19
10.1562 3.8701 0.1836 0.2483 0 8
10.1614 4.1076 0.1852 0.2462 0 8
10.1670 4.3493 0.1868 0.2440 0 8
10.1729 4.5956 0.1886 0.2418 0 8
10.1792 4.8468 0.1904 0.2394 0 8
10.1860 5.1034 0.1925 0.2369 0 8
10.1932 5.3656 0.1946 0.2343 0 8
10.2008 5.6340 0.1969 0.2316 0 8
10.2089 5.9090 0.1993 0.2288 0 8
10.2175 6.1911 0.2018 0.2259 0 8
10.3245 6.5428 0.2065 0.2389 0 0
9.2080 6.0979 0.1866 0.4352 0 11
8.9686 6.2019 0.1842 0.8647 0 11
8.3408 6.0187 0.1738 0.4743 0 2
7.9574 5.9886 0.1682 0.8450 0 2
7.5377 5.9135 0.1618 0.5092 0 2
7.1758 5.8661 0.1566 0.5263 0 2
8.7795 7.4761 0.1948 0.8177 0 11
8.7388 7.7495 0.1973 0.8073 0 11
8.6660 8.0013 0.1993 0.7965 0 11
8.6542 8.3185 0.2028 0.7855 0 11
8.6100 8.6152 0.2057 0.7741 0 11
8.5543 8.9102 0.2087 0.6216 0 11
8.4869 9.2030 0.2115 0.7505 0 11
8.4689 9.5616 0.2158 0.7382 0 11
8.4186 9.8984 0.2195 0.7256 0 11
8.3532 10.2306 0.2231 0.6823 0 11
8.2827 10.5707 0.2268 0.6996 0 11
8.2564 10.9843 0.2321 0.6862 0 11
8.1980 11.3751 0.2369 0.6725 0 11
8.1080 11.7400 0.2410 0.6585 0 11
8.0735 12.2072 0.2472 0.6442 0 11
8.0070 12.6514 0.2529 0.6297 0 11
7.9088 13.0699 0.2581 0.6150 0 11
7.8641 13.6052 0.2655 0.6000 0 11
7.7592 14.0683 0.2714 0.5848 0 11
7.7059 14.6601 0.2798 0.5693 0 11
7.5928 15.1772 0.2867 0.5536 0 11
7.5293 15.8370 0.2962 0.5377 0 11
7.4062 16.4204 0.3043 0.5216 0 11
5.0358 11.7908 0.2166 0.1681 0 19
4.3532 10.7873 0.1965 0.7085 0 19
4.2426 11.1534 0.2016 0.7049 0 19
2.5614 7.1630 0.1285 0.9768 0 9
2.4263 7.2408 0.1290 0.9731 0 9
2.2902 7.3191 0.1296 0.9689 0 9
2.1529 7.3982 0.1302 0.9644 0 9
6.3599 23.6127 0.4131 0.3856 0 11
3.8366 15.4747 0.2693 0.4000 0 19
6.0762 26.8009 0.4642 0.0464 0 11
6.6159 32.1629 0.5547 0.3325 0 11
4.9084 29.8985 0.5118 0.9098 0 20
4.6197 32.1676 0.5490 0.8107 0 20
4.0169 32.6107 0.5550 0.9720 0 20
3.3775 32.8404 0.5577 0.9674 0 20
2.7039 32.7366 0.5549 0.9344 0 20
2.0238 32.4255 0.5488 0.7296 0 20
-28.3235 36.4612 0.7799 0.4574 0 9
-28.8451 35.6326 0.7744 0.3742 0 9
-27.8804 33.0608 0.7305 0.0611 0 9
-26.9871 30.7279 0.6908 0.0272 0 9
-28.3264 30.9759 0.7091 0.2226 0 9
-28.5342 29.9721 0.6990 0.3037 0 9
-3.0099 3.0371 0.0722 0.8285 0 5
-29.3296 28.4296 0.6900 0.2421 0 9
-28.6134 26.6422 0.6604 0.1035 0 9
-30.8208 27.5634 0.6985 0.2428 0 9
-31.8493 27.3526 0.7092 0.1383 0 9
-32.6129 26.8899 0.7140 0.3927 0 9
-29.7783 23.5643 0.6414 0.4221 0 9
-33.3529 25.3211 0.7074 0.1121 0 9
-39.6282 28.8496 0.8280 0.3758 0 9
-38.8550 27.1101 0.8003 0.1521 0 9
-29.4921 18.0398 0.5840 0.0765 0 9
-30.5731 17.8676 0.5981 0.1207 0 9
-31.4465 17.5408 0.6082 0.4281 0 9
-32.2871 17.1691 0.6177 0.3983 0 9
-23.8874 12.0938 0.4523 0.2343 0 9
-24.6676 11.8728 0.4624 0.2291 0 9
-25.4845 11.6418 0.4733 0.2239 0 9
-26.2470 11.3588 0.4831 0.2004 0 9
-44.4905 18.2024 0.8120 0.5440 0 9
-45.1240 17.4124 0.8170 0.4636 0 9
-37.7317 13.6961 0.6780 0.0232 0 9
-39.0656 13.2989 0.6971 0.0868 0 9
-38.9292 12.3862 0.6900 0.0877 0 9
-39.9756 11.8407 0.7042 0.4194 0 9
-40.8087 11.2014 0.7148 0.3430 0 9
-41.9602 10.6164 0.7311 0.4722 0 9
-27.1603 6.2946 0.4710 0.0450 0 9
-27.7505 5.8469 0.4791 0.0672 0 9
-24.2592 4.6047 0.4171 0.9492 0 9
-29.7286 5.0268 0.5093 0.1827 0 9
-31.0459 4.6106 0.5302 0.3643 0 9
-31.0965 3.9818 0.5296 0.3648 0 9
-40.0857 4.3168 0.6811 0.2426 0 9
-29.5002 2.5789 0.5002 0.2021 0 9
-29.2282 1.9647 0.4948 0.2043 0 9
-28.7064 1.3514 0.4854 0.1406 0 9
-30.0109 0.8096 0.5071 0.3483 0 9
-29.0487 0.2002 0.4907 0.2717 0 9
-30.0809 -0.3966 0.5082 0.3642 0 9
-30.0262 -0.9991 0.5075 0.3647 0 9
-31.3383 17.5181 -0.2022 0.5034 0 9
-31.4495 16.7607 -0.2007 0.2890 0 9
-32.9376 16.7135 -0.2080 0.3511 0 9
-26.9159 12.9853 -0.1683 0.8211 0 9
-42.7231 19.5639 -0.2646 0.1171 0 9
-44.0250 19.1005 -0.2702 0.5136 0 9
-43.5390 17.8598 -0.2649 0.2693 0 9
-44.8493 17.3537 -0.2708 0.3785 0 9
-44.9815 16.3745 -0.2695 0.4410 0 9
-39.3099 13.4224 -0.2339 0.4075 0 9
-39.4267 12.5842 -0.2330 0.4090 0 9
-39.1814 11.6446 -0.2302 0.4038 0 9
-37.6435 10.3698 -0.2198 0.1068 0 9
-40.4186 10.2659 -0.2348 0.4902 0 9
-29.2571 6.8088 -0.1691 0.4726 0 9
-29.4825 6.2401 -0.1697 0.4711 0 9
-24.0918 4.5958 -0.1381 0.9557 0 9
-29.1414 4.9550 -0.1664 0.1991 0 9
-30.2621 4.5225 -0.1723 0.1857 0 9
-30.2649 3.9036 -0.1718 0.1862 0 9
-39.6562 4.3074 -0.2246 0.1429 0 9
-40.5816 3.5852 -0.2293 0.4081 0 9
-45.6120 3.1081 -0.2574 0.0858 0 9
-45.4314 2.1805 -0.2561 0.1844 0 9
-32.3343 0.2524 -0.1821 0.4601 0 9
-29.5711 -0.3628 -0.1665 0.5102 0 9
-29.4396 -0.9525 -0.1658 0.1824 0 9
-29.5170 -1.5487 -0.1664 0.5030 0 9
-30.4161 -2.2090 -0.1717 0.3013 0 9
-32.9910 -3.0630 -0.1866 0.0606 0 9
-30.5120 -3.4519 -0.1729 0.1883 0 9
-30.2308 -4.0363 -0.1717 0.1952 0 9
-30.7230 -4.7316 -0.1750 0.1915 0 9
-30.6698 -5.3558 -0.1753 0.2409 0 9
-26.1830 -5.1160 -0.1502 0.9512 0 9
-40.6691 -8.7977 -0.2343 0.0560 0 9
-38.9443 -9.2467 -0.2254 0.0833 0 9
-41.2096 -10.6629 -0.2396 0.3952 0 9
-39.6284 -11.1072 -0.2317 0.1100 0 9
-43.3624 -13.0982 -0.2550 0.1066 0 9
-25.4767 -9.4032 -0.1529 0.1412 0 9
-28.3777 -11.1262 -0.1716 0.7313 0 9
-30.0322 -13.1892 -0.1847 0.2742 0 9
-28.8736 -13.3782 -0.1791 0.1913 0 9
-28.7405 -14.0240 -0.1800 0.4170 0 9
-28.5030 -14.6237 -0.1804 0.2280 0 9
-28.0809 -15.1268 -0.1796 0.2290 0 9
-20.9604 -11.8399 -0.1355 0.9528 0 9
-28.7807 -17.0287 -0.1883 0.4199 0 9
-28.1242 -17.4119 -0.1862 0.2895 0 9
-26.9704 -17.4561 -0.1809 0.2038 0 9
-25.7191 -17.3886 -0.1748 0.2109 0 9
-27.2263 -19.2152 -0.1876 0.2304 0 9
-26.2908 -19.3573 -0.1838 0.8426 0 9
-26.1968 -20.1114 -0.1860 0.1451 0 9
-26.0792 -20.8664 -0.1881 0.4402 0 9
-25.6940 -21.4183 -0.1883 0.2025 0 9
-25.8710 -22.4612 -0.1929 0.1622 0 9
-25.8045 -23.3283 -0.1959 0.1597 0 9
-32.6747 -30.7535 -0.2526 0.1829 0 9
-30.4045 -29.7903 -0.2396 0.1851 0 9
-22.6918 -23.1445 -0.1825 0.9452 0 9
-29.7285 -31.5648 -0.2441 0.5187 0 9
-29.7997 -32.9411 -0.2501 0.1419 0 9
-30.5662 -35.1833 -0.2624 0.4220 0 9
-28.6586 -34.3568 -0.2519 0.1260 0 9
-17.8267 -22.2652 -0.1606 0.9611 0 9
-20.6872 -30.5763 -0.2078 0.8539 0 9
-22.5343 -34.7917 -0.2334 0.3527 0 9
-21.9160 -35.3737 -0.2343 0.3491 0 9
-20.9210 -35.3329 -0.2312 0.3652 0 9
-20.0712 -35.5050 -0.2296 0.1666 0 9
-21.2225 -39.3656 -0.2518 0.9175 0 9
-20.0820 -41.1212 -0.2577 0.4114 0 9
-1.3718 -25.9818 -0.1465 0.5480 0 5
2.3700 -21.8869 -0.1239 0.6903 0 9
2.5506 -19.8264 -0.1125 0.6003 0 9
5.1227 -34.3557 -0.1956 0.8363 0 9
5.8274 -34.3404 -0.1961 0.9930 0 9
6.5185 -34.2311 -0.1962 0.9532 0 9
7.1910 -34.0301 -0.1958 0.9963 0 2
2.6590 -11.4430 -0.0662 0.8527 0 9
2.9256 -11.5349 -0.0670 0.2463 0 9
3.0836 -11.2083 -0.0655 0.9200 0 9
3.3032 -11.1281 -0.0654 0.6576 0 9
3.5378 -11.0966 -0.0656 0.6875 0 9
3.7671 -11.0447 -0.0657 0.4272 0 9
4.0069 -11.0186 -0.0660 0.8237 0 9
4.2131 -10.8992 -0.0658 0.7080 0 9
4.4760 -10.9220 -0.0665 0.6903 0 9
4.7692 -11.0027 -0.0675 0.9294 0 9
5.0295 -10.9930 -0.0681 0.6507 0 9
5.2361 -10.8626 -0.0679 0.6875 0 9
5.4898 -10.8278 -0.0684 0.5702 0 9
5.7482 -10.7944 -0.0689 0.7350 0 9
5.8234 -10.4254 -0.0672 0.9279 0 2
6.3055 -10.7747 -0.0703 0.8394 0 9
6.3616 -10.3864 -0.0686 0.9123 0 2
6.6226 -10.3405 -0.0691 0.9039 0 2
7.1287 -10.6538 -0.0722 0.9338 0 9
7.1813 -10.2795 -0.0706 0.8861 0 2
7.4659 -10.2424 -0.0713 0.8767 0 2
7.9397 -10.4455 -0.0739 0.9635 0 20
8.2221 -10.3777 -0.0745 0.3359 0 20
9.0467 -10.9590 -0.0800 0.2395 0 8
9.1269 -10.6147 -0.0788 0.2432 0 8
9.2020 -10.2772 -0.0776 0.2440 0 8
9.2744 -9.9487 -0.0766 0.1984 0 8
9.2796 -9.5621 -0.0750 0.2025 0 8
7.0452 -6.9739 -0.0558 0.8367 21 5
9.2893 -8.8332 -0.0722 0.2105 0 8
9.2937 -8.4887 -0.0708 0.2144 0 8
9.2979 -8.1562 -0.0696 0.2182 0 8
9.3018 -7.8349 -0.0685 0.2219 0 8
9.3055 -7.5239 -0.0674 0.2255 0 8
9.3091 -7.2226 -0.0663 0.2291 0 8
9.3123 -6.9302 -0.0654 0.2325 0 8
9.3155 -6.6462 -0.0644 0.2358 0 8
9.3184 -6.3699 -0.0635 0.2391 0 8
9.3213 -6.1009 -0.0627 0.2423 0 8
9.5217 -5.9625 -0.0632 0.6438 0 8
9.6832 -5.7964 -0.0635 0.2483 0 7
9.6856 -5.5368 -0.0628 0.2512 0 7
9.6880 -5.2830 -0.0621 0.2539 0 7
9.6902 -5.0345 -0.0615 0.2566 0 7
9.6922 -4.7909 -0.0609 0.2592 0 7
9.6942 -4.5521 -0.0603 0.2616 0 7
9.6960 -4.3175 -0.0597 0.2640 0 7
9.6978 -4.0870 -0.0592 0.2663 0 7
9.6994 -3.8603 -0.0588 0.2684 0 7
9.7009 -3.6370 -0.0583 0.2705 0 7
9.7023 -3.4170 -0.0579 0.2724 0 7
9.7036 -3.2000 -0.0575 0.2742 0 7
9.7048 -2.9857 -0.0572 0.2760 0 7
9.7060 -2.7741 -0.0568 0.2776 0 7
9.7070 -2.5647 -0.0565 0.2791 0 7
9.7080 -2.3575 -0.0562 0.2805 0 7
9.7088 -2.1523 -0.0560 0.2818 0 7
9.7096 -1.9488 -0.0557 0.2829 0 7
9.7103 -1.7470 -0.0555 0.2840 0 7
9.7109 -1.5465 -0.0553 0.2849 0 7
9.7115 -1.3473 -0.0552 0.2858 0 7
9.7120 -1.1491 -0.0550 0.2865 0 7
9.7124 -0.9519 -0.0549 0.2871 0 7
9.7127 -0.7554 -0.0548 0.2876 0 7
9.7129 -0.5595 -0.0548 0.2880 0 7
5.6659 -0.2124 -0.0319 0.7135 184 4
5.4881 -0.0954 -0.0309 0.7653 184 4
5.4619 0.0147 -0.0307 0.8892 184 4
5.5275 0.1259 -0.0311 0.5655 184 4
5.7508 0.2465 -0.0324 0.3535 184 4
9.7129 0.6119 -0.0548 0.2879 0 7
9.7126 0.8080 -0.0549 0.2875 0 7
9.7123 1.0046 -0.0550 0.2870 0 7
9.7118 1.2021 -0.0551 0.2863 0 7
9.7114 1.4005 -0.0552 0.2856 0 7
9.7108 1.6001 -0.0554 0.2847 0 7
9.7101 1.8009 -0.0556 0.2837 0 7
9.7094 2.0032 -0.0558 0.2826 0 7
9.4800 2.1551 -0.0547 0.1548 0 8
9.3819 2.3319 -0.0544 0.1758 0 8
9.3496 2.5242 -0.0545 0.2787 0 8
9.3485 2.7264 -0.0548 0.2772 0 8
9.0300 2.8314 -0.0533 0.2755 0 19
9.3140 3.1271 -0.0553 0.2738 0 19
9.3127 3.3362 -0.0557 0.2719 0 19
9.0262 3.4395 -0.0544 0.2699 0 19
9.3419 3.7763 -0.0567 0.2679 0 8
9.3403 3.9957 -0.0572 0.2657 0 8
9.3386 4.2187 -0.0577 0.2634 0 8
9.3368 4.4457 -0.0582 0.2610 0 8
9.3348 4.6769 -0.0588 0.2585 0 8
9.3328 4.9127 -0.0594 0.2559 0 8
9.3306 5.1534 -0.0600 0.2532 0 8
9.3283 5.3993 -0.0607 0.2504 0 8
9.3258 5.6508 -0.0614 0.2475 0 8
9.3233 5.9083 -0.0621 0.2445 0 8
9.1894 6.0855 -0.0621 0.4362 0 11
8.7722 6.0660 -0.0600 0.4574 0 2
8.3525 6.0272 -0.0580 0.8479 0 2
7.9112 5.9538 -0.0557 0.4927 0 2
7.5409 5.9160 -0.0539 0.8293 0 2
8.8869 7.2649 -0.0646 0.8215 0 11
8.8478 7.5343 -0.0654 0.8115 0 11
8.7762 7.7826 -0.0660 0.8010 0 11
8.7352 8.0653 -0.0669 0.7903 0 11
8.7242 8.3858 -0.0681 0.7793 0 11
8.6808 8.6860 -0.0691 0.7679 0 11
8.6050 8.9631 -0.0700 0.7562 0 11
8.5589 9.2811 -0.0711 0.7442 0 11
8.5419 9.6441 -0.0725 0.7320 0 11
8.4925 9.9852 -0.0738 0.7194 0 11
8.4112 10.3016 -0.0749 0.7065 0 11
8.3582 10.6670 -0.0763 0.6934 0 11
8.3331 11.0863 -0.0781 0.6799 0 11
8.2461 11.4418 -0.0794 0.6662 0 11
8.2159 11.8962 -0.0814 0.6522 0 11
8.1534 12.3280 -0.0832 0.6380 0 11
8.0591 12.7338 -0.0848 0.6235 0 11
8.0196 13.2529 -0.0872 0.6088 0 11
7.9477 13.7499 -0.0894 0.5938 0 11
7.8438 14.2218 -0.0914 0.5785 0 11
7.7923 14.8245 -0.0943 0.5631 0 11
7.6804 15.3523 -0.0966 0.5474 0 11
7.6187 16.0251 -0.0999 0.5314 0 11
7.4969 16.6215 -0.1026 0.5153 0 11
7.4229 17.3801 -0.1064 0.4990 0 11
4.2683 10.5769 -0.0642 0.7227 0 19
4.1598 10.9358 -0.0658 0.7190 0 19
2.5695 7.1858 -0.0429 0.9738 0 9
2.4341 7.2639 -0.0431 0.9701 0 9
2.2975 7.3426 -0.0433 0.9659 0 9
2.1597 7.4219 -0.0435 0.9803 0 9
6.4426 23.9198 -0.1395 0.3793 0 11
3.7885 15.2808 -0.0886 0.4051 0 19
3.5152 15.5048 -0.0895 0.6457 0 19
3.2508 15.8037 -0.0908 0.6362 0 19
3.7314 20.1852 -0.1156 0.9511 0 20
3.3046 20.1295 -0.1148 0.9570 0 20
3.2053 22.3189 -0.1269 0.1143 0 20
2.7331 22.1881 -0.1258 0.9678 0 20
3.3799 32.8629 -0.1860 0.9291 0 20
2.6988 32.6749 -0.1846 0.9362 0 20
2.0126 32.2464 -0.1819 0.7338 0 20
-7.0283 13.5083 -0.0857 0.9898 0 5
-28.2456 36.3610 -0.2592 0.2793 0 9
-28.9019 35.7026 -0.2586 0.3947 0 9
-27.6929 32.8384 -0.2418 0.0787 0 9
-29.2774 33.3358 -0.2498 0.1464 0 9
-26.4412 28.9144 -0.2206 0.0756 0 9
-26.5405 27.8780 -0.2167 0.0770 0 9
-2.9878 3.0148 -0.0239 0.9540 0 5
-28.8716 27.9856 -0.2264 0.2150 0 9
-29.8204 27.7660 -0.2294 0.2427 0 9
-31.4156 28.0955 -0.2373 0.0861 0 9
-31.8376 27.3425 -0.2363 0.2421 0 9
-31.4342 25.9178 -0.2294 0.0825 0 9
-29.8106 23.5899 -0.2141 0.9505 0 9
-32.6314 24.7735 -0.2306 0.0387 0 9
-29.9652 19.1662 -0.2003 0.3189 0 9
-30.6343 18.7384 -0.2022 0.4067 0 9
-31.1217 18.1882 -0.2030 0.5413 0 9
-31.3527 17.4885 -0.2022 0.5034 0 9
-31.4541 16.7261 -0.2006 0.2891 0 9
-32.9951 16.7047 -0.2082 0.3507 0 9
-26.9129 12.9535 -0.1681 0.8216 0 9
-44.1638 20.1747 -0.2733 0.3125 0 9
-44.0170 19.0490 -0.2700 0.1452 0 9
-43.5516 17.8184 -0.2649 0.2693 0 9
-44.8176 17.2942 -0.2705 0.3789 0 9
-45.0169 16.3406 -0.2696 0.4408 0 9
-39.3153 13.3839 -0.2339 0.4076 0 9
-39.4320 12.5461 -0.2330 0.4091 0 9
-39.2264 11.6188 -0.2304 0.4034 0 9
-37.8065 10.3774 -0.2208 0.1064 0 9
-40.2798 10.1913 -0.2340 0.1977 0 9
-29.2674 6.7829 -0.1691 0.4726 0 9
-29.4927 6.2140 -0.1697 0.4710 0 9
-24.0984 4.5742 -0.1381 0.9556 0 9
-29.1640 4.9313 -0.1665 0.1990 0 9
-30.2621 4.4942 -0.1723 0.1857 0 9
-30.2652 3.8753 -0.1718 0.1862 0 9
-39.7281 4.2783 -0.2249 0.1426 0 9
-40.6084 3.5501 -0.2295 0.4078 0 9
-45.6741 3.0702 -0.2577 0.1822 0 9
-45.4287 2.1386 -0.2560 0.1844 0 9
-32.3219 0.8718 -0.1821 0.4783 0 9
-30.8227 0.2125 -0.1735 0.2857 0 9
-29.5786 -0.3900 -0.1665 0.5101 0 9
-29.4020 -0.9783 -0.1656 0.1826 0 9
-31.9784 17.8760 -1.0316 0.2505 0 9
-30.9850 16.5131 -0.9887 0.0696 0 9
-33.0889 16.7904 -1.0448 0.1633 0 9
-26.7388 12.8999 -0.8359 0.8539 0 9
-41.5662 19.0342 -1.2873 0.4913 0 9
-43.0539 18.6792 -1.3215 0.3100 0 9
-43.2536 17.7427 -1.3164 0.3962 0 9
-43.9176 16.9932 -1.3260 0.4480 0 9
-40.7898 14.8485 -1.2223 0.1696 0 9
-39.5177 13.4933 -1.1759 0.0448 0 9
-39.0316 12.4582 -1.1537 0.1826 0 9
-27.6832 8.2274 -0.8132 0.1023 0 9
-41.3975 11.4039 -1.2091 0.3699 0 9
-43.0650 10.9381 -1.2511 0.1880 0 9
-29.6798 6.9072 -0.8580 0.3741 0 9
-26.9843 5.7114 -0.7766 0.1176 0 9
-23.9331 4.5656 -0.6860 0.9616 0 9
-48.4362 7.2383 -1.3790 0.4220 0 9
-40.0875 5.1705 -1.1381 0.4868 0 9
-27.0442 2.9375 -0.7660 0.2318 0 9
-27.8670 2.4620 -0.7877 0.2040 0 9
-28.3970 1.9352 -0.8014 0.2885 0 9
-28.6970 1.3775 -0.8090 0.2858 0 9
-28.4858 0.7946 -0.8024 0.1885 0 9
-28.7959 0.2249 -0.8108 0.3995 0 9
-28.5830 -0.3506 -0.8049 0.3905 0 9
-28.3398 -0.9169 -0.7984 0.3936 0 9
-28.4465 -1.4925 -0.8021 0.3975 0 9
-26.2565 -1.9070 -0.7413 0.0573 0 9
-28.5675 -2.6522 -0.8079 0.4023 0 9
-28.2682 -3.1980 -0.8010 0.2810 0 9
-27.7575 -3.7060 -0.7885 0.1945 0 9
-27.0755 -4.1698 -0.7714 0.1988 0 9
-30.7956 -5.3778 -0.8803 0.2104 0 9
-26.0121 -5.0826 -0.7463 0.9571 0 9
-30.6295 -6.6258 -0.8824 0.2099 0 9
-39.2456 -9.3183 -1.1358 0.1027 0 9
-39.6275 -10.2536 -1.1526 0.4099 0 9
-43.0977 -12.0795 -1.2603 0.4950 0 9
-43.9568 -13.2777 -1.2930 0.3180 0 9
-46.9103 -15.2040 -1.3885 0.4274 0 9
-30.7383 -11.3452 -0.9226 0.2582 0 9
-28.1364 -11.0316 -0.8510 0.7372 0 9
-30.6076 -12.7152 -0.9333 0.2275 0 9
-30.3848 -13.3440 -0.9344 0.3134 0 9
-29.0724 -13.4702 -0.9022 0.4409 0 9
-29.0641 -14.1820 -0.9106 0.4368 0 9
-28.8161 -14.7844 -0.9119 0.5085 0 9
-28.9352 -15.5871 -0.9254 0.1487 0 9
-20.8497 -11.7774 -0.6743 0.9574 0 9
-28.9064 -17.1031 -0.9457 0.1539 0 9
-29.2537 -18.1111 -0.9688 0.2598 0 9
-39.8282 -25.7780 -1.3359 0.4183 0 9
-29.1506 -19.7087 -0.9908 0.1094 0 9
-27.9852 -19.7508 -0.9645 0.3072 0 9
-26.2080 -19.2962 -0.9164 0.8449 0 9
-26.2511 -20.1531 -0.9319 0.2597 0 9
-26.3048 -21.0470 -0.9486 0.2239 0 9
-25.8609 -22.4524 -0.9644 0.1491 0 9
-23.0000 -21.6477 -0.8894 0.0390 0 9
-25.3248 -24.8133 -0.9984 0.1480 0 9
-30.1635 -30.7651 -1.2132 0.3071 0 9
-23.9597 -25.4397 -0.9840 0.1392 0 9
-30.5407 -33.7604 -1.2818 0.0744 0 9
-17.7763 -22.2025 -0.8008 0.2956 0 9
-25.5319 -34.6536 -1.2120 0.1219 0 9
-20.6737 -30.5565 -1.0388 0.8541 0 9
-21.6220 -36.5170 -1.1949 0.4125 0 9
-21.2373 -39.3931 -1.2601 0.7799 0 9
-19.9452 -40.8410 -1.2798 0.9903 0 9
1.5696 -14.4945 -0.4105 0.2652 0 9
1.7778 -13.8195 -0.3923 0.6165 0 9
1.8860 -12.6482 -0.3601 0.0606 0 9
1.9621 -11.5632 -0.3303 0.4019 0 9
2.1557 -11.3210 -0.3245 0.3924 0 9
2.4035 -11.3747 -0.3274 0.8659 0 9
2.6227 -11.2867 -0.3263 0.9725 0 9
2.8415 -11.2031 -0.3255 0.7612 0 9
3.0603 -11.1236 -0.3249 0.6403 0 9
3.3144 -11.1657 -0.3280 0.8538 0 9
3.5438 -11.1155 -0.3285 0.9571 0 9
3.7873 -11.1037 -0.3304 0.5848 0 9
4.0071 -11.0193 -0.3302 0.4621 0 9
4.1246 -10.6700 -0.3221 0.6160 0 2
4.5129 -11.0121 -0.3351 0.8960 0 9
4.7353 -10.9244 -0.3353 0.8558 0 9
5.0298 -10.9936 -0.3404 0.9123 0 9
5.0906 -10.5607 -0.3301 0.9465 0 2
5.4904 -10.8287 -0.3419 0.9100 0 9
5.5900 -10.4971 -0.3349 0.9333 0 2
5.8389 -10.4531 -0.3371 0.9265 0 2
6.1041 -10.4305 -0.3403 0.9191 0 2
6.3676 -10.3962 -0.3433 0.9111 0 2
6.7935 -10.6075 -0.3547 0.7955 0 9
6.9094 -10.3258 -0.3498 0.8940 0 2
7.1883 -10.2895 -0.3534 0.8849 0 2
7.7985 -10.6990 -0.3728 0.8755 0 2
7.7121 -10.1459 -0.3588 0.8657 0 2
8.2173 -10.3715 -0.3726 0.9550 0 20
8.2913 -10.0439 -0.3667 0.2071 0 8
8.3168 -9.6725 -0.3592 0.2115 0 8
8.3409 -9.3155 -0.3521 0.2157 0 8
8.3636 -8.9718 -0.3454 0.2199 0 8
8.3851 -8.6404 -0.3390 0.2241 0 8
8.4054 -8.3204 -0.3330 0.2281 0 8
8.4247 -8.0110 -0.3273 0.2321 0 8
8.4429 -7.7116 -0.3220 0.2359 0 8
8.4602 -7.4213 -0.3169 0.2397 0 8
8.4765 -7.1397 -0.3121 0.2434 0 8
8.4920 -6.8661 -0.3075 0.2470 0 8
8.5066 -6.6000 -0.3032 0.2506 0 8
8.5205 -6.3409 -0.2991 0.2540 0 8
8.5610 -6.1078 -0.2961 0.7220 0 8
8.8600 -6.0565 -0.3022 0.6737 0 8
8.8854 -5.8156 -0.2990 0.2638 0 7
8.8970 -5.5714 -0.2956 0.2668 0 7
