ply
format ascii 1.0
element vertex 1355
property float32 x
property float32 y
property float32 z
property float32 CosAngle
property uint32 ObjIdx
property uint32 ObjTag
end_header
-21.8816 7.9109 -8.9166 0.8326 0 0
-21.9066 7.4252 -8.8641 0.8375 0 0
-21.9046 6.9366 -8.8051 0.8685 0 0
-21.9197 6.4592 -8.7571 0.8732 0 0
-21.9319 5.9861 -8.7121 0.8778 0 0
-21.9415 5.5170 -8.6701 0.8820 0 0
-21.9258 5.0464 -8.6221 0.8636 0 0
-21.9242 4.5837 -8.5834 0.9207 0 0
-21.9368 4.1277 -8.5541 0.9238 0 0
-21.9470 3.6741 -8.5275 0.9267 0 0
-21.9544 3.2228 -8.5035 0.9277 0 0
-21.9385 2.7709 -8.4740 0.9223 0 0
-21.9073 2.3204 -8.4422 0.9257 0 0
-21.8741 1.8728 -8.4132 0.9289 0 0
-21.8388 1.4279 -8.3869 0.9318 0 0
-21.8274 0.9868 -8.3732 0.9221 0 0
-21.8141 0.5468 -8.3622 0.9168 0 0
-21.7862 0.1078 -8.3490 0.9183 0 0
-21.7559 -0.3300 -8.3382 0.9195 0 0
-21.7232 -0.7668 -8.3300 0.9204 0 0
-21.7077 -1.2039 -8.3316 0.9094 0 0
-21.6930 -1.6413 -8.3369 0.9088 0 0
-21.6759 -2.0792 -8.3447 0.9080 0 0
-21.6561 -2.5179 -8.3549 0.9069 0 0
-21.6366 -2.9578 -8.3687 0.8963 0 0
-21.6152 -3.3991 -8.3851 0.8995 0 0
-21.5818 -3.8402 -8.4004 0.8978 0 0
-21.5457 -4.2826 -8.4183 0.8959 0 0
-21.5071 -4.7265 -8.4386 0.8938 0 0
-21.4857 -5.1769 -8.4694 0.8597 0 0
-21.4372 -5.6238 -8.4931 0.8753 0 0
-21.3835 -6.0719 -8.5185 0.8727 0 0
-21.3268 -6.5222 -8.5464 0.8698 0 0
-21.2671 -6.9747 -8.5770 0.8667 0 0
-21.1895 -7.4245 -8.6042 0.8804 0 0
-21.1123 -7.8777 -8.6355 0.8772 0 0
-21.0320 -8.3334 -8.6694 0.8737 0 0
-20.9482 -8.7918 -8.7061 0.8701 0 0
-20.8616 -9.2533 -8.7457 0.8578 0 0
-20.7011 -9.6849 -8.7583 0.4570 0 0
-20.5168 -10.1067 -8.7646 0.4567 0 0
-20.3259 -10.5258 -8.7717 0.4563 0 0
-19.9493 -10.8452 -8.7016 0.1110 0 8
-19.2778 -10.9881 -8.5034 0.1136 0 8
-18.6137 -11.1115 -8.3074 0.1162 0 8
-17.9738 -11.2259 -8.1209 0.8004 0 8
-17.7342 -11.5785 -8.1163 0.8768 0 8
-17.3151 -11.8084 -8.0316 0.1248 0 7
-16.6682 -11.8653 -7.8407 0.1279 0 7
-16.0341 -11.9070 -7.6535 0.1310 0 7
-15.4132 -11.9344 -7.4703 0.1342 0 7
-14.8062 -11.9484 -7.2911 0.1375 0 7
-14.2135 -11.9500 -7.1162 0.1409 0 7
-13.6352 -11.9401 -6.9455 0.1443 0 7
-13.0714 -11.9193 -6.7791 0.1479 0 7
-12.5222 -11.8886 -6.6170 0.1515 0 7
-11.9879 -11.8488 -6.4593 0.1552 0 7
-11.4682 -11.8005 -6.3059 0.1590 0 7
-10.9630 -11.7444 -6.1568 0.1628 0 7
-10.4723 -11.6810 -6.0119 0.1668 0 7
-9.6274 -11.1833 -5.6549 0.1707 0 8
-9.1820 -11.1102 -5.5235 0.1748 0 8
-8.7498 -11.0319 -5.3959 0.1789 0 8
-8.3306 -10.9487 -5.2722 0.1831 0 8
-7.9243 -10.8612 -5.1522 0.1874 0 8
-7.5303 -10.7698 -5.0360 0.1917 0 8
-7.1486 -10.6747 -4.9233 0.1961 0 8
-6.7787 -10.5765 -4.8141 0.2006 0 8
-6.4203 -10.4754 -4.7084 0.2051 0 8
-6.0733 -10.3718 -4.6059 0.2096 0 8
-5.7371 -10.2658 -4.5067 0.2143 0 8
-5.4116 -10.1579 -4.4106 0.2189 0 8
-5.0964 -10.0481 -4.3176 0.2236 0 8
-4.7911 -9.9369 -4.2275 0.2284 0 8
-4.4955 -9.8242 -4.1403 0.2332 0 8
-4.2094 -9.7104 -4.0558 0.2381 0 8
-3.9323 -9.5957 -3.9740 0.2430 0 8
-3.6640 -9.4801 -3.8948 0.2479 0 8
-3.4041 -9.3638 -3.8182 0.2529 0 8
-3.1526 -9.2470 -3.7439 0.2579 0 8
-2.9090 -9.1298 -3.6720 0.2630 0 8
-2.6731 -9.0123 -3.6024 0.2680 0 8
-2.4447 -8.8946 -3.5350 0.2732 0 8
-2.2235 -8.7768 -3.4697 0.2783 0 8
-2.0091 -8.6589 -3.4064 0.2835 0 8
2.0154 -5.3144 -2.3262 0.4562 0 7
2.0993 -5.2167 -2.3015 0.4611 0 7
2.1808 -5.1193 -2.2774 0.4660 0 7
2.2599 -5.0224 -2.2541 0.4708 0 7
2.3367 -4.9259 -2.2314 0.4756 0 7
2.4113 -4.8298 -2.2094 0.4803 0 7
2.4837 -4.7340 -2.1880 0.4850 0 7
2.5540 -4.6387 -2.1673 0.4896 0 7
2.6222 -4.5438 -2.1471 0.4942 0 7
2.6884 -4.4493 -2.1276 0.4988 0 7
2.7526 -4.3552 -2.1086 0.5033 0 7
2.8149 -4.2615 -2.0903 0.5077 0 7
2.8753 -4.1681 -2.0724 0.5120 0 7
2.9338 -4.0752 -2.0551 0.5164 0 7
2.9907 -3.9826 -2.0384 0.5206 0 7
3.0457 -3.8904 -2.0221 0.5248 0 7
3.0990 -3.7985 -2.0064 0.5289 0 7
3.1507 -3.7070 -1.9911 0.5329 0 7
3.2007 -3.6159 -1.9764 0.5369 0 7
3.2491 -3.5251 -1.9621 0.5408 0 7
3.2960 -3.4347 -1.9483 0.5447 0 7
3.3413 -3.3446 -1.9349 0.5484 0 7
3.3851 -3.2548 -1.9220 0.5521 0 7
3.4274 -3.1653 -1.9095 0.5557 0 7
3.4684 -3.0762 -1.8974 0.5593 0 7
3.5079 -2.9873 -1.8857 0.5627 0 7
3.5459 -2.8988 -1.8745 0.5661 0 7
3.5827 -2.8105 -1.8636 0.5694 0 7
3.6181 -2.7225 -1.8532 0.5726 0 7
3.6522 -2.6348 -1.8431 0.5758 0 7
3.6849 -2.5474 -1.8335 0.5788 0 7
3.7165 -2.4602 -1.8241 0.5817 0 7
3.7468 -2.3732 -1.8152 0.5846 0 7
3.7758 -2.2865 -1.8066 0.5874 0 7
3.8037 -2.2001 -1.7984 0.5901 0 7
3.8303 -2.1138 -1.7905 0.5927 0 7
3.8559 -2.0278 -1.7830 0.5952 0 7
3.8802 -1.9420 -1.7758 0.5976 0 7
3.9033 -1.8564 -1.7690 0.5999 0 7
3.9254 -1.7709 -1.7625 0.6021 0 7
3.9463 -1.6857 -1.7563 0.6042 0 7
3.9662 -1.6006 -1.7504 0.6062 0 7
3.9850 -1.5157 -1.7449 0.6082 0 7
4.0026 -1.4310 -1.7397 0.6100 0 7
4.0192 -1.3464 -1.7348 0.6117 0 7
4.0348 -1.2619 -1.7302 0.6133 0 7
4.0493 -1.1776 -1.7259 0.6148 0 7
4.0627 -1.0933 -1.7219 0.6163 0 7
4.0752 -1.0092 -1.7183 0.6176 0 7
4.0867 -0.9252 -1.7149 0.6188 0 7
4.0970 -0.8413 -1.7118 0.6199 0 7
4.1065 -0.7575 -1.7090 0.6209 0 7
4.1149 -0.6738 -1.7066 0.6218 0 7
4.1223 -0.5902 -1.7044 0.6226 0 7
4.1288 -0.5066 -1.7025 0.6233 0 7
4.1342 -0.4230 -1.7009 0.6239 0 7
4.1387 -0.3395 -1.6995 0.6244 0 7
4.1421 -0.2560 -1.6985 0.6248 0 7
4.1447 -0.1726 -1.6978 0.6250 0 7
4.1462 -0.0892 -1.6973 0.6252 0 7
4.1468 -0.0057 -1.6972 0.6253 0 7
4.1463 0.0777 -1.6973 0.6252 0 7
4.1449 0.1611 -1.6977 0.6251 0 7
4.1426 0.2445 -1.6984 0.6248 0 7
4.1392 0.3280 -1.6994 0.6245 0 7
4.1349 0.4115 -1.7006 0.6240 0 7
4.1296 0.4950 -1.7022 0.6234 0 7
4.1233 0.5787 -1.7041 0.6227 0 7
4.1160 0.6623 -1.7062 0.6219 0 7
4.1077 0.7460 -1.7087 0.6211 0 7
4.0984 0.8298 -1.7114 0.6201 0 7
4.0881 0.9137 -1.7144 0.6190 0 7
4.0769 0.9977 -1.7178 0.6178 0 7
4.0645 1.0818 -1.7214 0.6165 0 7
4.0512 1.1660 -1.7254 0.6151 0 7
4.0368 1.2503 -1.7296 0.6135 0 7
4.0214 1.3347 -1.7342 0.6119 0 7
4.0050 1.4193 -1.7390 0.6102 0 7
3.9874 1.5040 -1.7442 0.6084 0 7
3.9688 1.5889 -1.7497 0.6065 0 7
3.9491 1.6740 -1.7555 0.6045 0 7
3.9283 1.7592 -1.7616 0.6024 0 7
3.9064 1.8446 -1.7681 0.6002 0 7
3.8834 1.9302 -1.7749 0.5979 0 7
3.8592 2.0160 -1.7820 0.5955 0 7
3.7945 2.0803 -1.7711 0.4236 0 8
3.6673 2.1077 -1.7312 0.5904 0 8
3.6407 2.1909 -1.7390 0.5878 0 8
3.6128 2.2744 -1.7473 0.5850 0 8
3.5838 2.3581 -1.7558 0.5822 0 8
3.5536 2.4420 -1.7647 0.5792 0 8
3.5222 2.5262 -1.7740 0.5762 0 8
3.4895 2.6107 -1.7836 0.5731 0 8
3.4556 2.6954 -1.7936 0.5699 0 8
3.3222 2.7005 -1.7522 0.5520 0 19
3.2689 2.7683 -1.7532 0.5632 0 19
3.3345 2.9410 -1.8197 0.5598 0 19
3.2954 3.0265 -1.8312 0.5562 0 19
3.2549 3.1124 -1.8432 0.5526 0 19
3.2131 3.1985 -1.8555 0.5490 0 19
3.1613 3.2762 -1.8633 0.8122 0 19
3.0368 3.2765 -1.8284 0.8158 0 19
2.9844 3.3529 -1.8371 0.5375 0 19
3.0414 3.5585 -1.9159 0.5335 0 8
2.9918 3.6465 -1.9305 0.5295 0 8
2.9407 3.7349 -1.9456 0.5254 0 8
2.8879 3.8237 -1.9611 0.5212 0 8
2.8335 3.9128 -1.9772 0.5170 0 8
2.7772 4.0023 -1.9938 0.5127 0 8
2.7194 4.0921 -2.0109 0.5083 0 8
2.6596 4.1824 -2.0285 0.5039 0 8
2.5980 4.2730 -2.0467 0.4994 0 8
2.5345 4.3639 -2.0654 0.4949 0 8
2.4691 4.4553 -2.0847 0.4903 0 8
2.4017 4.5470 -2.1046 0.4857 0 8
2.3322 4.6392 -2.1251 0.4810 0 8
2.2607 4.7317 -2.1462 0.4763 0 8
2.1870 4.8246 -2.1680 0.4715 0 8
2.1111 4.9179 -2.1904 0.4667 0 8
2.0329 5.0116 -2.2134 0.4618 0 8
1.9525 5.1057 -2.2372 0.4569 0 8
1.8696 5.2001 -2.2617 0.4520 0 8
1.7842 5.2950 -2.2868 0.4470 0 8
1.6964 5.3902 -2.3128 0.4420 0 8
1.6059 5.4858 -2.3395 0.4369 0 8
1.5128 5.5818 -2.3669 0.4319 0 8
1.4170 5.6782 -2.3952 0.4268 0 8
1.3183 5.7749 -2.4243 0.4216 0 8
1.2167 5.8720 -2.4543 0.4165 0 8
1.1238 6.0318 -2.5112 0.4320 0 0
1.0142 6.1254 -2.5411 0.4270 0 0
0.9017 6.2196 -2.5721 0.4044 0 0
0.7865 6.3178 -2.6057 0.3992 0 0
0.6680 6.4163 -2.6403 0.3940 0 0
0.5461 6.5151 -2.6758 0.3887 0 0
0.4206 6.6140 -2.7124 0.3835 0 0
0.2915 6.7131 -2.7501 0.3782 0 0
0.1586 6.8124 -2.7889 0.3730 0 0
0.0219 6.9118 -2.8288 0.3677 0 0
-0.1189 7.0113 -2.8700 0.3624 0 0
-0.2637 7.1108 -2.9123 0.3572 0 0
-0.4128 7.2103 -2.9558 0.3519 0 0
-0.4515 5.8299 -2.3932 0.9308 0 2
-0.5691 5.8238 -2.3949 0.9301 0 2
-0.8866 7.5084 -3.0944 0.3361 0 0
-0.8050 5.8117 -2.4013 0.9276 0 2
-0.9235 5.8055 -2.4059 0.9258 0 2
-1.0464 5.8204 -2.4203 0.2154 0 2
-1.5855 7.9029 -3.2989 0.3153 0 0
-1.2826 5.7869 -2.4259 0.9182 0 2
-1.4037 5.7805 -2.4346 0.9149 0 2
-1.5258 5.7741 -2.4443 0.9113 0 2
-2.3707 8.2924 -3.5299 0.2913 0 0
-1.7731 5.7611 -2.4670 0.9029 0 2
-1.8986 5.7545 -2.4800 0.8982 0 2
-2.7343 7.7594 -3.3671 0.2836 0 9
-2.1538 5.7410 -2.5096 0.8876 0 2
-2.2838 5.7341 -2.5261 0.8818 0 2
-2.4156 5.7271 -2.5439 0.8756 0 2
-2.5549 5.7325 -2.5686 0.4229 0 2
-4.2432 9.0275 -4.0825 0.2518 0 0
-4.5088 9.1121 -4.1610 0.2471 0 0
-4.7822 9.1944 -4.2416 0.2424 0 0
-5.0632 9.2743 -4.3246 0.2377 0 0
-5.3523 9.3515 -4.4099 0.2331 0 0
-5.6496 9.4258 -4.4976 0.2286 0 0
-5.9551 9.4969 -4.5878 0.2241 0 0
-6.2714 9.5684 -4.6823 0.2154 0 0
-6.6004 9.6415 -4.7821 0.2109 0 0
-6.9389 9.7110 -4.8848 0.2065 0 0
-7.2871 9.7765 -4.9905 0.2021 0 0
-7.5666 9.7363 -5.0467 0.2025 0 8
-7.9224 9.7816 -5.1517 0.1984 0 8
-7.3627 8.7257 -4.6727 0.7425 0 2
-8.6611 9.8553 -5.3698 0.1903 0 8
-9.0441 9.8828 -5.4829 0.1864 0 8
-9.4360 9.9036 -5.5986 0.1825 0 8
-7.4061 7.4663 -4.3041 0.6951 0 2
-7.2082 6.9803 -4.1067 0.9185 0 2
-10.6654 9.9204 -5.9614 0.1714 0 8
-11.0925 9.9091 -6.0875 0.1679 0 8
-11.9683 10.2661 -6.4535 0.1644 0 7
-12.4287 10.2344 -6.5894 0.1610 0 7
-12.8971 10.1917 -6.7276 0.1577 0 7
-13.3729 10.1375 -6.8681 0.1545 0 7
-13.8557 10.0712 -7.0106 0.1514 0 7
-14.3451 9.9922 -7.1550 0.1483 0 7
-14.8402 9.8998 -7.3011 0.1453 0 7
-15.3403 9.7933 -7.4488 0.1425 0 7
-15.8445 9.6723 -7.5976 0.1397 0 7
-16.3520 9.5360 -7.7474 0.1370 0 7
-16.8617 9.3839 -7.8978 0.1344 0 7
-17.3724 9.2154 -8.0485 0.1318 0 7
-17.8829 9.0300 -8.1992 0.1294 0 7
-18.3916 8.8273 -8.3493 0.1271 0 7
-8.5295 3.8847 -3.8360 0.9911 0 5
-18.7605 8.0928 -8.3622 0.8223 0 8
-19.1613 7.8124 -8.4690 0.1207 0 8
-19.6302 7.5467 -8.6074 0.1188 0 8
-20.0895 7.2630 -8.7430 0.1169 0 8
-20.5375 6.9612 -8.8752 0.1152 0 8
-20.9724 6.6413 -9.0036 0.1135 0 8
-21.2043 6.2484 -9.0474 0.4043 0 0
-21.2970 5.8127 -9.0351 0.4048 0 0
-21.3813 5.3761 -9.0232 0.4054 0 0
-21.4594 4.9390 -9.0124 0.4142 0 0
-21.5512 4.5057 -9.0111 0.9283 0 0
-21.5648 4.0576 -8.9808 0.9314 0 0
-21.5759 3.6120 -8.9534 0.9343 0 0
-21.5847 3.1685 -8.9288 0.9368 0 0
-21.5725 2.7247 -8.8992 0.9296 0 0
-21.5430 2.2818 -8.8664 0.9330 0 0
-21.5117 1.8418 -8.8364 0.9362 0 0
-21.4782 1.4044 -8.8093 0.9391 0 0
-21.4427 0.9694 -8.7849 0.9417 0 0
-21.4205 0.5369 -8.7697 0.9254 0 0
-21.3937 0.1058 -8.7560 0.9268 0 0
-21.3644 -0.3241 -8.7449 0.9280 0 0
-21.3328 -0.7530 -8.7364 0.9289 0 0
-21.2886 -1.1806 -8.7263 0.4746 0 0
-21.2866 -1.6105 -8.7370 0.9179 0 0
-21.2694 -2.0402 -8.7450 0.9171 0 0
-21.2495 -2.4706 -8.7555 0.9160 0 0
-21.2271 -2.9019 -8.7685 0.9146 0 0
-21.2006 -3.3339 -8.7835 0.9089 0 0
-21.1671 -3.7664 -8.7992 0.9073 0 0
-21.1309 -4.2001 -8.8175 0.9054 0 0
-21.0920 -4.6353 -8.8384 0.9033 0 0
-18.8954 -4.5528 -7.9547 0.9841 0 5
-20.9559 -5.4975 -8.8669 0.4357 0 0
-20.8527 -5.9212 -8.8719 0.4354 0 0
-20.7419 -6.3433 -8.8773 0.4351 0 0
-20.6238 -6.7637 -8.8831 0.4349 0 0
-20.3114 -7.1169 -8.8085 0.1160 0 8
-19.8574 -7.4095 -8.6745 0.1178 0 8
-19.3930 -7.6841 -8.5374 0.1197 0 8
-18.9200 -7.9406 -8.3978 0.1217 0 8
-18.4400 -8.1792 -8.2562 0.1238 0 8
-17.9550 -8.4002 -8.1129 0.1260 0 8
-17.8759 -8.8058 -8.1557 0.9240 0 8
-17.6236 -9.1264 -8.1226 0.1306 0 7
-17.1129 -9.3031 -7.9719 0.1331 0 7
-16.6025 -9.4632 -7.8213 0.1357 0 7
-16.0938 -9.6072 -7.6711 0.1383 0 7
-15.5879 -9.7357 -7.5218 0.1411 0 7
-15.0855 -9.8492 -7.3735 0.1439 0 7
-14.5879 -9.9485 -7.2267 0.1468 0 7
-14.0956 -10.0340 -7.0814 0.1499 0 7
-13.6095 -10.1065 -6.9379 0.1530 0 7
-13.1301 -10.1666 -6.7964 0.1561 0 7
-12.6580 -10.2148 -6.6571 0.1594 0 7
-12.1937 -10.2519 -6.5200 0.1628 0 7
-11.7375 -10.2783 -6.3854 0.1662 0 7
-11.2898 -10.2948 -6.2533 0.1697 0 7
-10.8509 -10.3019 -6.1237 0.1733 0 7
-10.4210 -10.3001 -5.9968 0.1770 0 7
-10.0003 -10.2901 -5.8726 0.1807 0 7
-9.2354 -9.8936 -5.5392 0.1845 0 8
-8.8481 -9.8694 -5.4249 0.1884 0 8
-8.4698 -9.8386 -5.3133 0.1924 0 8
-8.1006 -9.8018 -5.2043 0.1964 0 8
-7.7404 -9.7592 -5.0980 0.2005 0 8
-7.3891 -9.7113 -4.9943 0.2046 0 8
-7.0468 -9.6585 -4.8933 0.2089 0 8
-6.7132 -9.6012 -4.7948 0.2132 0 8
-6.3884 -9.5397 -4.6989 0.2175 0 8
-6.0721 -9.4742 -4.6056 0.2219 0 8
-5.7644 -9.4052 -4.5148 0.2264 0 8
-5.4650 -9.3329 -4.4264 0.2309 0 8
-5.1736 -9.2575 -4.3404 0.2355 0 8
-4.8903 -9.1794 -4.2568 0.2401 0 8
-4.6148 -9.0987 -4.1755 0.2448 0 8
-4.3470 -9.0157 -4.0964 0.2495 0 8
-4.0609 -8.8745 -3.9943 0.2543 0 7
-3.8095 -8.7880 -3.9201 0.2591 0 7
-3.5652 -8.6998 -3.8480 0.2639 0 7
-3.3277 -8.6101 -3.7779 0.2688 0 7
-3.1166 -8.5727 -3.7333 0.2738 0 8
-2.8910 -8.4797 -3.6667 0.2787 0 8
-2.6720 -8.3856 -3.6020 0.2837 0 8
-2.4591 -8.2905 -3.5392 0.2888 0 8
-2.2523 -8.1945 -3.4782 0.2939 0 8
-2.0514 -8.0977 -3.4189 0.2989 0 8
-1.8563 -8.0003 -3.3613 0.3041 0 8
1.9165 -5.0534 -2.3554 0.4752 0 7
1.9973 -4.9631 -2.3316 0.4801 0 7
2.0759 -4.8730 -2.3084 0.4849 0 7
2.1522 -4.7830 -2.2858 0.4897 0 7
2.2264 -4.6934 -2.2639 0.4944 0 7
2.2986 -4.6039 -2.2426 0.4991 0 7
2.3687 -4.5147 -2.2220 0.5037 0 7
2.4368 -4.4258 -2.2019 0.5083 0 7
2.5029 -4.3371 -2.1823 0.5129 0 7
2.5671 -4.2486 -2.1634 0.5174 0 7
2.6295 -4.1604 -2.1450 0.5218 0 7
2.6900 -4.0725 -2.1271 0.5262 0 7
2.7488 -3.9848 -2.1098 0.5305 0 7
2.8059 -3.8973 -2.0929 0.5348 0 7
2.8612 -3.8102 -2.0766 0.5390 0 7
2.9149 -3.7232 -2.0607 0.5431 0 7
2.9668 -3.6365 -2.0454 0.5472 0 7
3.0173 -3.5501 -2.0305 0.5512 0 7
3.0662 -3.4639 -2.0161 0.5552 0 7
3.1135 -3.3780 -2.0021 0.5591 0 7
3.1593 -3.2923 -1.9886 0.5629 0 7
3.2037 -3.2068 -1.9755 0.5666 0 7
3.2465 -3.1216 -1.9629 0.5702 0 7
3.2881 -3.0366 -1.9506 0.5738 0 7
3.3281 -2.9518 -1.9388 0.5773 0 7
3.3669 -2.8673 -1.9273 0.5807 0 7
3.4043 -2.7829 -1.9163 0.5841 0 7
3.4403 -2.6988 -1.9056 0.5874 0 7
3.4751 -2.6149 -1.8954 0.5905 0 7
3.5087 -2.5312 -1.8855 0.5936 0 7
3.5408 -2.4477 -1.8760 0.5966 0 7
3.5719 -2.3644 -1.8668 0.5996 0 7
3.6017 -2.2813 -1.8580 0.6024 0 7
3.6302 -2.1984 -1.8496 0.6052 0 7
3.6576 -2.1156 -1.8415 0.6078 0 7
3.6839 -2.0330 -1.8338 0.6104 0 7
3.7090 -1.9506 -1.8264 0.6129 0 7
3.7330 -1.8683 -1.8193 0.6152 0 7
3.7558 -1.7862 -1.8125 0.6175 0 7
3.7776 -1.7043 -1.8061 0.6197 0 7
3.7982 -1.6224 -1.8000 0.6218 0 7
3.8178 -1.5407 -1.7942 0.6238 0 7
3.8363 -1.4592 -1.7888 0.6257 0 7
3.8538 -1.3777 -1.7836 0.6275 0 7
3.8702 -1.2964 -1.7788 0.6292 0 7
3.8855 -1.2152 -1.7743 0.6309 0 7
3.8998 -1.1341 -1.7700 0.6324 0 7
3.9132 -1.0531 -1.7661 0.6338 0 7
3.9254 -0.9722 -1.7625 0.6351 0 7
3.9368 -0.8913 -1.7591 0.6363 0 7
3.9471 -0.8106 -1.7561 0.6374 0 7
3.9564 -0.7298 -1.7533 0.6384 0 7
3.9647 -0.6492 -1.7509 0.6393 0 7
3.9720 -0.5686 -1.7487 0.6401 0 7
3.9784 -0.4881 -1.7468 0.6408 0 7
3.9838 -0.4076 -1.7453 0.6413 0 7
3.9882 -0.3272 -1.7439 0.6418 0 7
3.9916 -0.2467 -1.7429 0.6422 0 7
3.9941 -0.1663 -1.7422 0.6425 0 7
3.9957 -0.0859 -1.7418 0.6426 0 7
3.9962 -0.0055 -1.7416 0.6427 0 7
3.9957 0.0749 -1.7417 0.6426 0 7
3.9944 0.1552 -1.7421 0.6425 0 7
3.9921 0.2357 -1.7428 0.6422 0 7
3.9887 0.3161 -1.7438 0.6419 0 7
3.9844 0.3965 -1.7451 0.6414 0 7
3.9792 0.4770 -1.7466 0.6408 0 7
3.9730 0.5575 -1.7485 0.6402 0 7
3.9658 0.6381 -1.7506 0.6394 0 7
3.9576 0.7188 -1.7530 0.6385 0 7
3.9484 0.7994 -1.7557 0.6375 0 7
3.9383 0.8802 -1.7587 0.6364 0 7
3.9271 0.9610 -1.7620 0.6352 0 7
3.9149 1.0419 -1.7656 0.6340 0 7
3.9017 1.1230 -1.7695 0.6326 0 7
3.8876 1.2041 -1.7737 0.6311 0 7
3.8723 1.2853 -1.7782 0.6295 0 7
3.8561 1.3666 -1.7829 0.6278 0 7
3.8387 1.4480 -1.7881 0.6260 0 7
3.8204 1.5295 -1.7935 0.6241 0 7
3.8010 1.6112 -1.7992 0.6221 0 7
3.7804 1.6930 -1.8053 0.6200 0 7
3.7589 1.7749 -1.8116 0.6178 0 7
3.7362 1.8570 -1.8183 0.6156 0 7
3.7123 1.9393 -1.8254 0.6132 0 7
3.6875 2.0217 -1.8327 0.6107 0 7
3.6024 2.0703 -1.8108 0.4370 0 8
3.5004 2.1065 -1.7804 0.6055 0 8
3.4729 2.1863 -1.7885 0.6028 0 8
3.4445 2.2664 -1.7970 0.6000 0 8
3.4147 2.3466 -1.8057 0.5971 0 8
3.3838 2.4270 -1.8148 0.5941 0 8
3.3517 2.5076 -1.8243 0.5910 0 8
3.3184 2.5884 -1.8341 0.5878 0 8
3.2838 2.6694 -1.8443 0.5846 0 8
3.1791 2.6922 -1.8156 0.5619 0 19
3.1018 2.7358 -1.8025 0.5778 0 19
3.0646 2.8146 -1.8134 0.5743 0 19
3.1218 2.9851 -1.8825 0.5707 0 19
3.0809 3.0669 -1.8945 0.5671 0 19
3.0385 3.1489 -1.9071 0.5634 0 19
2.9947 3.2311 -1.9200 0.5596 0 19
2.9064 3.2652 -1.9051 0.6587 0 19
2.8138 3.2922 -1.8875 0.5518 0 19
2.7671 3.3726 -1.9013 0.5478 0 19
2.8145 3.5746 -1.9828 0.5437 0 8
2.7630 3.6583 -1.9980 0.5396 0 8
2.7099 3.7423 -2.0137 0.5354 0 8
2.6553 3.8265 -2.0298 0.5312 0 8
2.5989 3.9109 -2.0465 0.5268 0 8
2.5408 3.9956 -2.0636 0.5225 0 8
2.4810 4.0805 -2.0812 0.5180 0 8
2.4193 4.1656 -2.0994 0.5135 0 8
2.3559 4.2510 -2.1182 0.5090 0 8
2.2905 4.3367 -2.1374 0.5044 0 8
2.2233 4.4226 -2.1573 0.4998 0 8
2.1541 4.5087 -2.1777 0.4951 0 8
2.0829 4.5950 -2.1987 0.4904 0 8
2.0096 4.6815 -2.2203 0.4856 0 8
1.9343 4.7683 -2.2426 0.4808 0 8
1.8567 4.8553 -2.2655 0.4759 0 8
1.7769 4.9425 -2.2890 0.4710 0 8
1.6949 5.0299 -2.3132 0.4661 0 8
1.6105 5.1174 -2.3381 0.4611 0 8
1.5238 5.2052 -2.3637 0.4561 0 8
1.4346 5.2931 -2.3900 0.4511 0 8
1.3428 5.3811 -2.4171 0.4460 0 8
1.2485 5.4693 -2.4449 0.4410 0 8
1.1516 5.5576 -2.4735 0.4359 0 8
1.0519 5.6460 -2.5029 0.4308 0 8
0.9495 5.7344 -2.5332 0.4256 0 8
0.8442 5.8229 -2.5643 0.4205 0 8
0.7360 5.9114 -2.5962 0.4153 0 8
0.6309 6.0599 -2.6553 0.4310 0 0
0.5150 6.1446 -2.6873 0.4258 0 0
0.3963 6.2312 -2.7212 0.4032 0 0
0.2744 6.3195 -2.7567 0.3980 0 0
0.1492 6.4076 -2.7933 0.3928 0 0
0.0205 6.4956 -2.8309 0.3875 0 0
-0.1116 6.5833 -2.8695 0.3823 0 0
-0.2474 6.6707 -2.9092 0.3771 0 0
-0.3869 6.7578 -2.9500 0.3719 0 0
-0.5302 6.8445 -2.9919 0.3667 0 0
-0.5689 5.8215 -2.5492 0.9217 0 2
-0.6866 5.8154 -2.5521 0.9206 0 2
-0.9838 7.1018 -3.1247 0.3511 0 0
-0.9232 5.8032 -2.5609 0.9174 0 2
-1.0422 5.7970 -2.5669 0.9153 0 2
-1.1617 5.7908 -2.5740 0.9128 0 2
-1.6480 7.4356 -3.3192 0.3305 0 0
-1.4031 5.7782 -2.5914 0.9066 0 2
-1.5251 5.7718 -2.6018 0.9030 0 2
-1.6482 5.7653 -2.6133 0.8991 0 2
-2.3865 7.7540 -3.5358 0.3103 0 0
-2.5835 7.8304 -3.5936 0.3053 0 0
-2.0318 5.7658 -2.6643 0.3587 0 2
-2.1615 5.7616 -2.6819 0.8796 0 2
-2.2829 5.7317 -2.6888 0.8738 0 2
-2.4146 5.7247 -2.7078 0.8677 0 2
-2.5483 5.7175 -2.7281 0.8612 0 2
-2.6839 5.7103 -2.7498 0.8544 0 2
-2.8219 5.7029 -2.7730 0.8473 0 2
-2.9721 5.7144 -2.8071 0.4747 0 2
-4.6068 8.4381 -4.1898 0.2588 0 0
-4.8611 8.4933 -4.2649 0.2543 0 0
-5.1218 8.5452 -4.3418 0.2498 0 0
-5.3886 8.5935 -4.4206 0.2453 0 0
-3.7065 5.6550 -2.9467 0.7973 0 2
-3.8654 5.6463 -2.9821 0.7879 0 2
-4.0282 5.6374 -3.0196 0.7781 0 2
-4.1952 5.6283 -3.0593 0.7680 0 2
-4.3667 5.6189 -3.1013 0.7576 0 2
-7.1449 8.8217 -4.9475 0.2146 0 0
-4.7405 5.6180 -3.2036 0.6761 0 2
-4.9117 5.5889 -3.2427 0.7246 0 2
-5.1048 5.5782 -3.2954 0.7130 0 2
-5.3435 5.6082 -3.3759 0.5004 0 2
-5.6261 5.6719 -3.4817 0.4852 0 2
-5.9273 5.7398 -3.5959 0.4698 0 2
-6.2704 5.8324 -3.7321 0.8697 0 2
-6.5941 5.8906 -3.8535 0.4384 0 2
-10.0831 8.6490 -5.7896 0.1862 0 8
-10.4434 8.5996 -5.8959 0.1828 0 8
-10.8081 8.5410 -6.0036 0.1795 0 8
-11.6036 8.7963 -6.3458 0.1764 0 7
-11.9897 8.7148 -6.4598 0.1733 0 7
-12.3787 8.6225 -6.5746 0.1702 0 7
-12.7702 8.5189 -6.6902 0.1673 0 7
-13.1634 8.4036 -6.8062 0.1645 0 7
-13.5577 8.2763 -6.9226 0.1617 0 7
-13.9523 8.1365 -7.0391 0.1590 0 7
-14.3463 7.9840 -7.1553 0.1564 0 7
-14.7389 7.8184 -7.2712 0.1539 0 7
-15.1289 7.6394 -7.3863 0.1515 0 7
-15.5156 7.4469 -7.5005 0.1492 0 7
-8.4907 3.8671 -4.0661 0.7374 0 5
-16.2745 7.0204 -7.7245 0.1449 0 7
-16.6443 6.7862 -7.8336 0.1429 0 7
-17.0063 6.5380 -7.9404 0.1410 0 7
-17.3589 6.2758 -8.0445 0.1391 0 7
-17.7011 5.9997 -8.1455 0.1374 0 7
-18.0315 5.7100 -8.2431 0.1358 0 7
-18.3489 5.4070 -8.3367 0.1343 0 7
-18.5784 5.0708 -8.3929 0.9468 0 8
-18.5699 4.6692 -8.3450 0.9523 0 8
-18.5668 4.2733 -8.3033 0.8731 0 8
-18.7497 3.9200 -8.3481 0.8695 0 8
-18.9702 3.5694 -8.4126 0.1282 0 8
-19.1749 3.2100 -8.4730 0.1272 0 8
-19.3588 2.8418 -8.5273 0.1264 0 8
-19.5211 2.4656 -8.5752 0.1257 0 8
-19.6609 2.0824 -8.6165 0.1251 0 8
-19.7774 1.6933 -8.6509 0.1246 0 8
-19.8702 1.2992 -8.6783 0.1242 0 8
-19.9385 0.9014 -8.6984 0.1239 0 8
-19.9821 0.5009 -8.7113 0.1238 0 8
-20.0008 0.0989 -8.7168 0.1237 0 8
-19.9945 -0.3034 -8.7149 0.1237 0 8
-19.9631 -0.7047 -8.7057 0.1238 0 8
-19.9068 -1.1040 -8.6891 0.1241 0 8
-19.8260 -1.5001 -8.6652 0.1244 0 8
-19.7211 -1.8918 -8.6343 0.1249 0 8
-19.5927 -2.2780 -8.5964 0.1254 0 8
-19.4414 -2.6578 -8.5517 0.1261 0 8
-19.2680 -3.0300 -8.5005 0.1268 0 8
-19.0733 -3.3939 -8.4431 0.1277 0 8
-18.8586 -3.7485 -8.3797 0.1287 0 8
-18.6246 -4.0930 -8.3106 0.1297 0 8
-18.3726 -4.4269 -8.2362 0.1309 0 8
-18.1087 -4.7506 -8.1591 0.8882 0 8
-18.0676 -5.1304 -8.1855 0.9705 0 8
-18.0367 -5.5160 -8.2201 0.9664 0 8
-17.8651 -5.8590 -8.1939 0.1366 0 7
-17.5285 -6.1418 -8.0946 0.1383 0 7
-17.1808 -6.4108 -7.9920 0.1401 0 7
-16.8233 -6.6659 -7.8865 0.1419 0 7
-16.4572 -6.9070 -7.7784 0.1439 0 7
-16.0839 -7.1340 -7.6682 0.1460 0 7
-15.7041 -7.3472 -7.5561 0.1481 0 7
-15.3195 -7.5465 -7.4426 0.1504 0 7
-14.9311 -7.7321 -7.3279 0.1527 0 7
-14.5395 -7.9042 -7.2124 0.1552 0 7
-14.1461 -8.0631 -7.0963 0.1577 0 7
-13.7518 -8.2091 -6.9799 0.1604 0 7
-13.3573 -8.3426 -6.8635 0.1631 0 7
-12.9634 -8.4637 -6.7472 0.1659 0 7
-12.5709 -8.5730 -6.6314 0.1688 0 7
-12.1806 -8.6708 -6.5162 0.1718 0 7
-11.7930 -8.7576 -6.4018 0.1748 0 7
-11.4086 -8.8337 -6.2883 0.1780 0 7
-11.0282 -8.8995 -6.1760 0.1812 0 7
-10.6517 -8.9555 -6.0649 0.1846 0 7
-10.2802 -9.0022 -5.9553 0.1880 0 7
-9.9135 -9.0398 -5.8470 0.1914 0 7
-9.5522 -9.0689 -5.7404 0.1950 0 7
-9.1966 -9.0899 -5.6354 0.1986 0 7
-8.5208 -8.7677 -5.3283 0.2023 0 8
-8.1897 -8.7734 -5.2306 0.2061 0 8
-7.8646 -8.7724 -5.1347 0.2100 0 8
-7.5457 -8.7651 -5.0405 0.2139 0 8
-7.2329 -8.7518 -4.9482 0.2179 0 8
-6.9264 -8.7329 -4.8577 0.2219 0 8
-6.6263 -8.7087 -4.7692 0.2260 0 8
-6.3325 -8.6795 -4.6825 0.2302 0 8
-6.0451 -8.6457 -4.5976 0.2345 0 8
-5.7641 -8.6073 -4.5147 0.2388 0 8
-5.4894 -8.5650 -4.4336 0.2432 0 8
-5.2210 -8.5187 -4.3544 0.2476 0 8
-4.9589 -8.4688 -4.2770 0.2521 0 8
-4.7031 -8.4156 -4.2015 0.2566 0 8
-4.4534 -8.3592 -4.1278 0.2612 0 8
-4.2096 -8.2999 -4.0559 0.2658 0 8
-3.9719 -8.2378 -3.9857 0.2705 0 8
-3.7277 -8.1463 -3.9043 0.6049 0 7
-3.5141 -8.1064 -3.8506 0.2800 0 8
-3.2937 -8.0374 -3.7855 0.2848 0 8
-3.0789 -7.9664 -3.7222 0.2896 0 8
-2.8696 -7.8935 -3.6604 0.2945 0 8
-2.6657 -7.8189 -3.6002 0.2994 0 8
-2.4670 -7.7427 -3.5416 0.3044 0 8
-2.2736 -7.6652 -3.4845 0.3094 0 8
-2.0851 -7.5863 -3.4288 0.3144 0 8
-1.9016 -7.5062 -3.3747 0.3195 0 8
-1.7228 -7.4250 -3.3219 0.3245 0 8
1.8250 -4.8124 -2.3824 0.4940 0 7
1.9029 -4.7287 -2.3594 0.4988 0 7
1.9787 -4.6450 -2.3371 0.5036 0 7
2.0525 -4.5614 -2.3153 0.5083 0 7
2.1242 -4.4778 -2.2941 0.5130 0 7
2.1940 -4.3944 -2.2735 0.5176 0 7
2.2618 -4.3111 -2.2535 0.5222 0 7
2.3277 -4.2279 -2.2340 0.5268 0 7
2.3919 -4.1448 -2.2151 0.5313 0 7
2.4543 -4.0618 -2.1967 0.5357 0 7
2.5148 -3.9790 -2.1788 0.5401 0 7
2.5736 -3.8963 -2.1614 0.5445 0 7
2.6308 -3.8137 -2.1446 0.5488 0 7
2.6863 -3.7313 -2.1282 0.5530 0 7
2.7402 -3.6490 -2.1123 0.5571 0 7
2.7925 -3.5669 -2.0969 0.5612 0 7
2.8432 -3.4850 -2.0819 0.5653 0 7
2.8924 -3.4032 -2.0674 0.5692 0 7
2.9401 -3.3215 -2.0533 0.5732 0 7
2.9863 -3.2400 -2.0396 0.5770 0 7
3.0312 -3.1587 -2.0264 0.5808 0 7
3.0746 -3.0775 -2.0136 0.5844 0 7
3.1165 -2.9965 -2.0012 0.5881 0 7
3.1571 -2.9157 -1.9892 0.5916 0 7
3.1964 -2.8350 -1.9776 0.5951 0 7
3.2344 -2.7544 -1.9665 0.5985 0 7
3.2710 -2.6740 -1.9556 0.6018 0 7
3.3064 -2.5937 -1.9452 0.6050 0 7
3.3405 -2.5136 -1.9351 0.6082 0 7
3.3734 -2.4337 -1.9254 0.6112 0 7
3.4050 -2.3538 -1.9161 0.6142 0 7
3.4355 -2.2741 -1.9071 0.6171 0 7
3.4648 -2.1946 -1.8984 0.6199 0 7
3.4929 -2.1152 -1.8901 0.6226 0 7
3.5198 -2.0359 -1.8822 0.6253 0 7
3.5457 -1.9567 -1.8746 0.6278 0 7
3.5704 -1.8777 -1.8673 0.6302 0 7
3.5939 -1.7987 -1.8603 0.6326 0 7
3.6164 -1.7199 -1.8537 0.6349 0 7
3.6379 -1.6412 -1.8473 0.6370 0 7
3.6582 -1.5626 -1.8413 0.6391 0 7
3.6775 -1.4841 -1.8357 0.6411 0 7
3.6957 -1.4057 -1.8303 0.6430 0 7
3.7129 -1.3274 -1.8252 0.6448 0 7
3.7291 -1.2492 -1.8204 0.6465 0 7
3.7443 -1.1710 -1.8159 0.6481 0 7
3.7584 -1.0930 -1.8118 0.6496 0 7
3.7716 -1.0150 -1.8079 0.6509 0 7
3.7837 -0.9371 -1.8043 0.6522 0 7
3.7948 -0.8592 -1.8010 0.6534 0 7
3.8050 -0.7814 -1.7980 0.6545 0 7
3.8142 -0.7036 -1.7953 0.6555 0 7
3.8224 -0.6259 -1.7929 0.6564 0 7
3.8296 -0.5483 -1.7908 0.6572 0 7
3.8359 -0.4706 -1.7889 0.6579 0 7
3.8412 -0.3930 -1.7873 0.6584 0 7
3.8456 -0.3154 -1.7860 0.6589 0 7
3.8490 -0.2379 -1.7850 0.6593 0 7
3.8515 -0.1604 -1.7843 0.6596 0 7
3.8530 -0.0828 -1.7839 0.6597 0 7
3.8535 -0.0053 -1.7837 0.6598 0 7
3.8531 0.0722 -1.7838 0.6597 0 7
3.8517 0.1497 -1.7842 0.6596 0 7
3.8494 0.2272 -1.7849 0.6593 0 7
3.8461 0.3048 -1.7859 0.6590 0 7
3.8419 0.3823 -1.7871 0.6585 0 7
3.8367 0.4599 -1.7887 0.6579 0 7
3.8305 0.5376 -1.7905 0.6573 0 7
3.8234 0.6152 -1.7926 0.6565 0 7
3.8154 0.6929 -1.7950 0.6556 0 7
3.8063 0.7707 -1.7976 0.6547 0 7
3.7963 0.8485 -1.8006 0.6536 0 7
3.7853 0.9263 -1.8038 0.6524 0 7
3.7732 1.0042 -1.8074 0.6511 0 7
3.7603 1.0822 -1.8112 0.6498 0 7
3.7463 1.1603 -1.8154 0.6483 0 7
3.7313 1.2384 -1.8198 0.6467 0 7
3.7153 1.3166 -1.8245 0.6450 0 7
3.6982 1.3950 -1.8296 0.6432 0 7
3.6801 1.4733 -1.8349 0.6414 0 7
3.6609 1.5518 -1.8405 0.6394 0 7
3.6407 1.6304 -1.8465 0.6373 0 7
3.6195 1.7091 -1.8528 0.6352 0 7
3.5971 1.7879 -1.8594 0.6329 0 7
3.5737 1.8668 -1.8663 0.6306 0 7
3.5492 1.9458 -1.8735 0.6281 0 7
3.5235 2.0250 -1.8811 0.6256 0 7
3.4260 2.0617 -1.8508 0.5631 0 8
3.3410 2.1033 -1.8275 0.6203 0 8
3.3130 2.1799 -1.8357 0.6175 0 8
3.2838 2.2567 -1.8443 0.6146 0 8
3.2535 2.3335 -1.8533 0.6117 0 8
3.2220 2.4105 -1.8626 0.6086 0 8
3.1893 2.4877 -1.8722 0.6055 0 8
3.1554 2.5649 -1.8822 0.6022 0 8
3.1202 2.6424 -1.8926 0.5989 0 8
3.0435 2.6843 -1.8784 0.5710 0 19
2.9427 2.7026 -1.8494 0.5921 0 19
2.9051 2.7778 -1.8605 0.5886 0 19
2.9568 2.9434 -1.9312 0.5849 0 19
2.9153 3.0212 -1.9434 0.5813 0 19
2.8725 3.0993 -1.9560 0.5775 0 19
2.8283 3.1775 -1.9691 0.5737 0 19
2.7783 3.2507 -1.9794 0.8479 0 19
2.6685 3.2524 -1.9473 0.6775 0 19
2.6049 3.3084 -1.9491 0.5618 0 19
2.6463 3.5038 -2.0325 0.5577 0 8
2.5946 3.5830 -2.0477 0.5536 0 8
2.5414 3.6624 -2.0634 0.5494 0 8
2.4865 3.7419 -2.0796 0.5451 0 8
2.4301 3.8215 -2.0963 0.5408 0 8
2.3720 3.9012 -2.1134 0.5364 0 8
2.3122 3.9811 -2.1311 0.5319 0 8
2.2507 4.0611 -2.1492 0.5274 0 8
2.1874 4.1413 -2.1679 0.5229 0 8
2.1222 4.2215 -2.1871 0.5183 0 8
2.0553 4.3019 -2.2069 0.5137 0 8
1.9865 4.3823 -2.2272 0.5090 0 8
1.9157 4.4628 -2.2481 0.5042 0 8
1.8430 4.5434 -2.2695 0.4995 0 8
1.7683 4.6241 -2.2916 0.4947 0 8
1.6915 4.7048 -2.3142 0.4898 0 8
1.6126 4.7855 -2.3375 0.4849 0 8
1.5315 4.8663 -2.3614 0.4800 0 8
1.4482 4.9471 -2.3860 0.4751 0 8
1.3627 5.0278 -2.4112 0.4701 0 8
1.2749 5.1086 -2.4372 0.4651 0 8
1.1846 5.1892 -2.4638 0.4601 0 8
1.0920 5.2698 -2.4911 0.4550 0 8
0.9968 5.3504 -2.5192 0.4500 0 8
0.8992 5.4307 -2.5480 0.4449 0 8
0.7990 5.5110 -2.5776 0.4398 0 8
0.6960 5.5910 -2.6080 0.4347 0 8
0.5904 5.6709 -2.6392 0.4295 0 8
0.4820 5.7505 -2.6712 0.4244 0 8
0.3707 5.8298 -2.7040 0.4192 0 8
0.2566 5.9088 -2.7377 0.4141 0 8
0.1408 6.0466 -2.7997 0.4298 0 0
0.0194 6.1214 -2.8335 0.4246 0 0
-0.1051 6.1975 -2.8692 0.4020 0 0
-0.2328 6.2747 -2.9065 0.3969 0 0
-0.3338 5.8312 -2.7036 0.9137 0 2
-0.4978 6.4274 -2.9841 0.3866 0 0
-0.6355 6.5027 -3.0244 0.3814 0 0
-0.6864 5.8131 -2.7095 0.9117 0 2
-0.8044 5.8070 -2.7136 0.9103 0 2
-1.0697 6.7238 -3.1515 0.3660 0 0
-1.0417 5.7947 -2.7253 0.9064 0 2
-1.1613 5.7884 -2.7328 0.9040 0 2
-1.2815 5.7822 -2.7414 0.9011 0 2
-1.7010 7.0046 -3.3366 0.3457 0 0
-1.5245 5.7694 -2.7622 0.8943 0 2
-1.6475 5.7629 -2.7744 0.8904 0 2
-1.7716 5.7564 -2.7879 0.8861 0 2
-2.3967 7.2641 -3.5407 0.3258 0 0
-2.0238 5.7430 -2.8186 0.8764 0 2
-2.1520 5.7362 -2.8359 0.8711 0 2
-2.9635 7.4404 -3.7072 0.3112 0 0
-3.1613 7.4950 -3.7653 0.3063 0 0
-2.5471 5.7151 -2.8963 0.8529 0 2
-2.6828 5.7078 -2.9193 0.8462 0 2
-2.8207 5.7004 -2.9440 0.8391 0 2
-2.9609 5.6928 -2.9702 0.8317 0 2
-3.1037 5.6851 -2.9982 0.8239 0 2
-3.2493 5.6772 -3.0279 0.8159 0 2
-3.3979 5.6691 -3.0594 0.8074 0 2
-3.5638 5.6835 -3.1052 0.7987 0 2
-3.7047 5.6523 -3.1283 0.7897 0 2
-3.8790 5.6662 -3.1785 0.7803 0 2
-4.0423 5.6573 -3.2185 0.7706 0 2
-4.2099 5.6481 -3.2608 0.7606 0 2
-4.3786 5.6341 -3.3029 0.6139 0 2
-4.5407 5.6064 -3.3395 0.7397 0 2
-4.7221 5.5963 -3.3894 0.7288 0 2
-4.9092 5.5860 -3.4423 0.7176 0 2
-5.1272 5.6027 -3.5154 0.2295 0 2
-5.3590 5.6246 -3.5961 0.4939 0 2
-5.6430 5.6890 -3.7091 0.4788 0 2
-5.9457 5.7577 -3.8311 0.4636 0 2
-6.2692 5.8312 -3.9632 0.4481 0 2
-8.6427 7.7206 -5.3644 0.2113 0 8
-8.9404 7.6688 -5.4522 0.2079 0 8
-9.2406 7.6091 -5.5409 0.2045 0 8
-9.5431 7.5414 -5.6302 0.2013 0 8
-9.8477 7.4652 -5.7201 0.1981 0 8
-10.1537 7.3804 -5.8104 0.1951 0 8
-10.4608 7.2866 -5.9011 0.1921 0 8
-10.7721 7.1860 -5.9939 0.6330 0 8
-11.4993 7.3412 -6.3151 0.1864 0 7
-11.8182 7.2144 -6.4092 0.1836 0 7
-12.1359 7.0773 -6.5030 0.1810 0 7
-12.4519 6.9297 -6.5962 0.1784 0 7
-12.7652 6.7715 -6.6887 0.1759 0 7
-13.0754 6.6025 -6.7803 0.1736 0 7
-13.3816 6.4226 -6.8706 0.1713 0 7
-13.6829 6.2318 -6.9596 0.1691 0 7
-13.9786 6.0300 -7.0468 0.1670 0 7
-14.2679 5.8172 -7.1322 0.1650 0 7
-14.5498 5.5936 -7.2154 0.1631 0 7
-14.8235 5.3591 -7.2962 0.1613 0 7
-15.0879 5.1140 -7.3743 0.1596 0 7
-15.3426 4.8585 -7.4494 0.1580 0 7
-15.5861 4.5928 -7.5213 0.1565 0 7
-15.8180 4.3173 -7.5897 0.1551 0 7
-16.0371 4.0324 -7.6544 0.1537 0 7
-16.2427 3.7384 -7.7151 0.1525 0 7
-16.4341 3.4359 -7.7716 0.1514 0 7
-16.6103 3.1254 -7.8236 0.1504 0 7
-16.7707 2.8076 -7.8709 0.1495 0 7
-16.9145 2.4830 -7.9134 0.1487 0 7
-17.0411 2.1524 -7.9507 0.1480 0 7
-17.1499 1.8165 -7.9829 0.1474 0 7
-17.2406 1.4761 -8.0096 0.1469 0 7
-17.3126 1.1320 -8.0309 0.1465 0 7
-17.3657 0.7851 -8.0466 0.1463 0 7
-17.3997 0.4362 -8.0566 0.1461 0 7
-17.4142 0.0861 -8.0608 0.1460 0 7
-17.4091 -0.2641 -8.0594 0.1460 0 7
-17.3848 -0.6137 -8.0522 0.1462 0 7
-17.3412 -0.9617 -8.0393 0.1464 0 7
-17.2784 -1.3073 -8.0208 0.1467 0 7
-17.1969 -1.6496 -7.9967 0.1472 0 7
-17.0969 -1.9878 -7.9672 0.1477 0 7
-16.9789 -2.3211 -7.9324 0.1484 0 7
-16.8435 -2.6487 -7.8924 0.1491 0 7
-16.6912 -2.9700 -7.8475 0.1500 0 7
-16.5227 -3.2842 -7.7977 0.1509 0 7
-16.3387 -3.5907 -7.7434 0.1520 0 7
-16.1400 -3.8889 -7.6848 0.1531 0 7
-15.9274 -4.1784 -7.6220 0.1544 0 7
-15.7018 -4.4586 -7.5554 0.1558 0 7
-15.4636 -4.7291 -7.4852 0.1572 0 7
-15.2145 -4.9897 -7.4116 0.1588 0 7
-14.9547 -5.2399 -7.3349 0.1604 0 7
-14.6854 -5.4796 -7.2555 0.1622 0 7
-14.4073 -5.7086 -7.1734 0.1641 0 7
-14.1216 -5.9268 -7.0891 0.1660 0 7
-13.8290 -6.1340 -7.0027 0.1681 0 7
-13.5303 -6.3302 -6.9145 0.1702 0 7
-13.2264 -6.5154 -6.8248 0.1724 0 7
-12.9182 -6.6897 -6.7339 0.1748 0 7
-12.6063 -6.8532 -6.6418 0.1772 0 7
-12.2915 -7.0060 -6.5489 0.1797 0 7
-11.9746 -7.1483 -6.4554 0.1823 0 7
-11.6562 -7.2801 -6.3614 0.1850 0 7
-11.3370 -7.4018 -6.2672 0.1878 0 7
-11.0175 -7.5136 -6.1729 0.1906 0 7
-10.6984 -7.6157 -6.0787 0.1936 0 7
-10.3800 -7.7083 -5.9847 0.1966 0 7
-10.0632 -7.7919 -5.8912 0.1998 0 7
-9.7480 -7.8665 -5.7982 0.2030 0 7
-9.4351 -7.9326 -5.7058 0.2063 0 7
-9.1248 -7.9904 -5.6142 0.2096 0 7
-8.8173 -8.0402 -5.5235 0.2131 0 7
-8.5132 -8.0824 -5.4337 0.2166 0 7
-8.2126 -8.1173 -5.3450 0.2202 0 7
-7.6240 -7.8449 -5.0636 0.2238 0 8
-7.3420 -7.8652 -4.9804 0.2276 0 8
-7.0639 -7.8793 -4.8983 0.2314 0 8
-6.7901 -7.8875 -4.8175 0.2353 0 8
-6.5206 -7.8900 -4.7380 0.2392 0 8
-6.2556 -7.8871 -4.6597 0.2432 0 8
-5.9951 -7.8792 -4.5829 0.2473 0 8
-5.7393 -7.8664 -4.5074 0.2515 0 8
-5.4881 -7.8490 -4.4332 0.2557 0 8
-5.2417 -7.8273 -4.3605 0.2599 0 8
-5.0000 -7.8014 -4.2892 0.2643 0 8
-4.7632 -7.7716 -4.2193 0.2686 0 8
-4.5311 -7.7382 -4.1508 0.2731 0 8
-4.3038 -7.7012 -4.0837 0.2776 0 8
-4.0814 -7.6611 -4.0180 0.2821 0 8
-3.8637 -7.6178 -3.9538 0.2867 0 8
-3.6507 -7.5716 -3.8909 0.2913 0 8
-3.4424 -7.5228 -3.8294 0.2960 0 8
-3.2387 -7.4713 -3.7693 0.3007 0 8
-3.0396 -7.4175 -3.7106 0.3055 0 8
-2.8451 -7.3615 -3.6532 0.3103 0 8
-2.6551 -7.3033 -3.5971 0.3151 0 8
-2.4695 -7.2432 -3.5423 0.3200 0 8
-2.2882 -7.1813 -3.4888 0.3249 0 8
-2.1112 -7.1176 -3.4365 0.3298 0 8
-1.9384 -7.0524 -3.3855 0.3348 0 8
-1.7697 -6.9857 -3.3358 0.3398 0 8
-1.6052 -6.9177 -3.2872 0.3448 0 8
1.7403 -4.5890 -2.4074 0.5125 0 7
1.8154 -4.5111 -2.3853 0.5173 0 7
1.8885 -4.4332 -2.3637 0.5220 0 7
1.9597 -4.3552 -2.3427 0.5267 0 7
2.0290 -4.2773 -2.3222 0.5313 0 7
2.0965 -4.1993 -2.3023 0.5359 0 7
2.1622 -4.1212 -2.2829 0.5405 0 7
2.2261 -4.0432 -2.2640 0.5450 0 7
2.2883 -3.9652 -2.2457 0.5494 0 7
2.3488 -3.8873 -2.2278 0.5538 0 7
2.4076 -3.8093 -2.2105 0.5582 0 7
2.4647 -3.7314 -2.1936 0.5625 0 7
2.5203 -3.6536 -2.1772 0.5667 0 7
2.5744 -3.5757 -2.1612 0.5709 0 7
2.6268 -3.4980 -2.1458 0.5750 0 7
2.6777 -3.4203 -2.1307 0.5790 0 7
2.7271 -3.3427 -2.1161 0.5830 0 7
2.7752 -3.2652 -2.1020 0.5870 0 7
2.8217 -3.1877 -2.0882 0.5908 0 7
2.8668 -3.1104 -2.0749 0.5946 0 7
2.9105 -3.0331 -2.0620 0.5983 0 7
2.9529 -2.9559 -2.0495 0.6020 0 7
2.9940 -2.8788 -2.0374 0.6056 0 7
3.0338 -2.8017 -2.0256 0.6091 0 7
3.0722 -2.7248 -2.0143 0.6125 0 7
3.1094 -2.6480 -2.0033 0.6159 0 7
3.1453 -2.5712 -1.9927 0.6191 0 7
3.1799 -2.4945 -1.9825 0.6223 0 7
3.2134 -2.4180 -1.9726 0.6255 0 7
3.2456 -2.3415 -1.9631 0.6285 0 7
3.2767 -2.2651 -1.9539 0.6314 0 7
3.3066 -2.1888 -1.9451 0.6343 0 7
3.3354 -2.1126 -1.9367 0.6371 0 7
3.3630 -2.0365 -1.9285 0.6398 0 7
3.3895 -1.9605 -1.9207 0.6424 0 7
3.4148 -1.8845 -1.9132 0.6449 0 7
3.4391 -1.8086 -1.9060 0.6473 0 7
3.4623 -1.7328 -1.8992 0.6497 0 7
3.4844 -1.6571 -1.8926 0.6519 0 7
3.5055 -1.5815 -1.8864 0.6540 0 7
3.5255 -1.5059 -1.8805 0.6561 0 7
3.5445 -1.4304 -1.8749 0.6581 0 7
3.5625 -1.3550 -1.8696 0.6599 0 7
3.5794 -1.2797 -1.8646 0.6617 0 7
3.5953 -1.2044 -1.8599 0.6634 0 7
3.6103 -1.1291 -1.8555 0.6649 0 7
3.6242 -1.0539 -1.8514 0.6664 0 7
3.6371 -0.9788 -1.8476 0.6678 0 7
3.6491 -0.9037 -1.8440 0.6691 0 7
3.6601 -0.8287 -1.8408 0.6703 0 7
3.6701 -0.7537 -1.8378 0.6713 0 7
3.6792 -0.6787 -1.8352 0.6723 0 7
3.6872 -0.6038 -1.8328 0.6732 0 7
3.6944 -0.5289 -1.8307 0.6740 0 7
3.7006 -0.4540 -1.8288 0.6746 0 7
3.7058 -0.3792 -1.8273 0.6752 0 7
3.7102 -0.3043 -1.8260 0.6757 0 7
3.7135 -0.2295 -1.8250 0.6760 0 7
3.7159 -0.1547 -1.8243 0.6763 0 7
3.7174 -0.0799 -1.8239 0.6765 0 7
3.7179 -0.0051 -1.8237 0.6765 0 7
3.7175 0.0697 -1.8238 0.6765 0 7
3.7162 0.1444 -1.8242 0.6763 0 7
3.7139 0.2192 -1.8249 0.6761 0 7
3.7106 0.2940 -1.8259 0.6757 0 7
3.7065 0.3689 -1.8271 0.6753 0 7
3.7014 0.4437 -1.8286 0.6747 0 7
3.6954 0.5186 -1.8304 0.6741 0 7
3.6883 0.5935 -1.8325 0.6733 0 7
3.6804 0.6684 -1.8348 0.6724 0 7
3.6714 0.7434 -1.8375 0.6715 0 7
3.6615 0.8184 -1.8404 0.6704 0 7
3.6507 0.8934 -1.8436 0.6692 0 7
3.6388 0.9685 -1.8471 0.6680 0 7
3.6260 1.0436 -1.8508 0.6666 0 7
3.6122 1.1188 -1.8549 0.6652 0 7
3.5975 1.1940 -1.8593 0.6636 0 7
3.5817 1.2693 -1.8639 0.6619 0 7
3.5649 1.3447 -1.8689 0.6602 0 7
3.5471 1.4201 -1.8742 0.6583 0 7
3.5282 1.4956 -1.8797 0.6564 0 7
3.5083 1.5711 -1.8856 0.6543 0 7
3.4874 1.6467 -1.8918 0.6522 0 7
3.4654 1.7224 -1.8983 0.6500 0 7
3.4424 1.7982 -1.9051 0.6476 0 7
3.4182 1.8741 -1.9122 0.6452 0 7
3.3930 1.9500 -1.9196 0.6427 0 7
3.3667 2.0260 -1.9274 0.6401 0 7
3.2634 2.0544 -1.8916 0.5777 0 8
3.1888 2.0982 -1.8724 0.6347 0 8
3.1601 2.1717 -1.8809 0.6318 0 8
3.1303 2.2452 -1.8897 0.6289 0 8
3.0995 2.3189 -1.8988 0.6259 0 8
3.0674 2.3926 -1.9082 0.6228 0 8
3.0341 2.4664 -1.9180 0.6196 0 8
2.9998 2.5403 -1.9282 0.6163 0 8
2.9641 2.6143 -1.9387 0.6130 0 8
2.9146 2.6768 -1.9411 0.5793 0 19
2.7978 2.6753 -1.8988 0.8364 0 19
2.7529 2.7405 -1.9054 0.6025 0 19
2.7994 2.9012 -1.9776 0.5989 0 19
2.7577 2.9754 -1.9899 0.5951 0 19
2.7145 3.0496 -2.0027 0.5914 0 19
2.6700 3.1240 -2.0158 0.5875 0 19
2.6241 3.1984 -2.0293 0.5836 0 19
2.5553 3.2454 -2.0262 0.6827 0 19
2.4537 3.2488 -1.9971 0.8691 0 19
2.4021 3.3172 -2.0090 0.5714 0 19
2.4348 3.5087 -2.0949 0.5673 0 8
2.3814 3.5837 -2.1106 0.5631 0 8
2.3266 3.6587 -2.1268 0.5588 0 8
2.2702 3.7338 -2.1435 0.5544 0 8
2.2121 3.8089 -2.1606 0.5501 0 8
2.1525 3.8840 -2.1782 0.5456 0 8
2.0912 3.9591 -2.1963 0.5411 0 8
2.0281 4.0343 -2.2149 0.5366 0 8
1.9633 4.1094 -2.2340 0.5320 0 8
1.8968 4.1845 -2.2536 0.5273 0 8
1.8285 4.2596 -2.2738 0.5227 0 8
1.7584 4.3346 -2.2945 0.5179 0 8
1.6863 4.4096 -2.3158 0.5132 0 8
1.6123 4.4845 -2.3376 0.5084 0 8
1.5363 4.5594 -2.3600 0.5036 0 8
1.4584 4.6341 -2.3830 0.4987 0 8
1.3784 4.7086 -2.4066 0.4938 0 8
1.2963 4.7831 -2.4308 0.4889 0 8
1.2121 4.8573 -2.4557 0.4840 0 8
1.1258 4.9314 -2.4812 0.4790 0 8
1.0372 5.0052 -2.5073 0.4740 0 8
0.9463 5.0788 -2.5341 0.4690 0 8
0.8531 5.1521 -2.5617 0.4639 0 8
0.7575 5.2252 -2.5899 0.4589 0 8
0.6595 5.2978 -2.6188 0.4538 0 8
0.5591 5.3701 -2.6484 0.4487 0 8
0.4561 5.4420 -2.6788 0.4436 0 8
0.3506 5.5134 -2.7099 0.4385 0 8
0.2425 5.5844 -2.7418 0.4334 0 8
0.1317 5.6548 -2.7746 0.4283 0 8
0.0181 5.7246 -2.8081 0.4232 0 8
-0.0982 5.7938 -2.8424 0.4181 0 8
-0.2174 5.8623 -2.8776 0.4130 0 8
-0.3337 5.8288 -2.8638 0.9043 0 2
-0.4510 5.8228 -2.8648 0.9040 0 2
-0.5707 5.8400 -2.8783 0.9034 0 2
-0.7300 6.1820 -3.0535 0.3960 0 0
-0.8041 5.8046 -2.8745 0.9010 0 2
-0.9224 5.7984 -2.8800 0.8992 0 2
-1.1454 6.3710 -3.1753 0.3809 0 0
-1.2904 6.4317 -3.2178 0.3758 0 0
-1.2810 5.7797 -2.9039 0.8919 0 2
-1.4020 5.7734 -2.9143 0.8887 0 2
-1.7454 6.6053 -3.3513 0.3609 0 0
-1.9041 6.6601 -3.3979 0.3559 0 0
-1.7708 5.7539 -2.9531 0.8770 0 2
-2.2318 6.7646 -3.4941 0.3461 0 0
-2.0229 5.7405 -2.9856 0.8675 0 2
-2.1511 5.7337 -3.0039 0.8622 0 2
-2.2809 5.7268 -3.0237 0.8565 0 2
-2.4134 5.7218 -3.0462 0.4146 0 2
-3.1153 6.9898 -3.7538 0.3222 0 0
-3.3031 7.0276 -3.8090 0.3175 0 0
-3.4948 7.0628 -3.8654 0.3129 0 0
-2.9595 5.6902 -3.1461 0.8232 0 2
-3.1023 5.6824 -3.1757 0.8155 0 2
-3.2478 5.6745 -3.2072 0.8075 0 2
-3.3962 5.6664 -3.2405 0.7992 0 2
-4.5100 7.1924 -4.1643 0.2904 0 0
-4.7244 7.2079 -4.2275 0.2861 0 0
-3.8734 5.6581 -3.3634 0.5708 0 2
-4.0276 5.6366 -3.3982 0.5855 0 2
-4.1911 5.6227 -3.4400 0.7529 0 2
-4.3623 5.6133 -3.4872 0.7427 0 2
-4.5384 5.6035 -3.5371 0.7322 0 2
-4.7196 5.5934 -3.5900 0.7214 0 2
-6.3329 7.2059 -4.7057 0.2575 0 0
-6.5773 7.1872 -4.7789 0.2536 0 0
-5.3750 5.6413 -3.8222 0.4872 0 2
-5.6604 5.7065 -3.9427 0.4723 0 2
-6.8438 6.6274 -4.6731 0.3622 0 2
-6.2923 5.8527 -4.2153 0.8654 0 2
-7.7593 6.9314 -5.1036 0.2328 0 8
-8.0130 6.8734 -5.1785 0.2295 0 8
-8.2682 6.8084 -5.2538 0.2262 0 8
-8.5245 6.7364 -5.3295 0.2230 0 8
-8.7816 6.6570 -5.4054 0.2198 0 8
-9.0389 6.5701 -5.4813 0.2168 0 8
-9.2964 6.4755 -5.5574 0.2138 0 8
-9.5535 6.3731 -5.6332 0.2109 0 8
-9.8097 6.2626 -5.7089 0.2081 0 8
-10.0646 6.1440 -5.7841 0.2054 0 8
-10.3178 6.0170 -5.8589 0.2028 0 8
-10.5686 5.8817 -5.9329 0.2003 0 8
-11.2299 5.9570 -6.2355 0.1979 0 7
-11.4838 5.7988 -6.3105 0.1955 0 7
-11.7336 5.6317 -6.3842 0.1933 0 7
-11.9788 5.4557 -6.4566 0.1911 0 7
-12.2186 5.2708 -6.5274 0.1890 0 7
-12.4525 5.0771 -6.5964 0.1870 0 7
-12.6796 4.8746 -6.6634 0.1852 0 7
-12.8995 4.6636 -6.7284 0.1834 0 7
-13.1115 4.4441 -6.7909 0.1817 0 7
-13.3151 4.2165 -6.8510 0.1801 0 7
-13.5092 3.9808 -6.9083 0.1786 0 7
-13.6936 3.7375 -6.9627 0.1772 0 7
-13.8675 3.4868 -7.0140 0.1759 0 7
-14.0302 3.2291 -7.0621 0.1747 0 7
-14.1813 2.9649 -7.1067 0.1736 0 7
-14.3202 2.6945 -7.1477 0.1726 0 7
-14.4464 2.4184 -7.1849 0.1717 0 7
-14.5594 2.1373 -7.2183 0.1709 0 7
-14.6587 1.8515 -7.2476 0.1702 0 7
-14.7440 1.5616 -7.2728 0.1696 0 7
-14.8150 1.2684 -7.2937 0.1692 0 7
-14.8714 0.9724 -7.3104 0.1688 0 7
-14.9129 0.6742 -7.3226 0.1685 0 7
-14.9394 0.3745 -7.3304 0.1683 0 7
-14.9507 0.0739 -7.3337 0.1682 0 7
-14.9468 -0.2268 -7.3326 0.1683 0 7
-14.9278 -0.5270 -7.3270 0.1684 0 7
-14.8936 -0.8260 -7.3169 0.1686 0 7
-14.8446 -1.1231 -7.3025 0.1690 0 7
-14.7808 -1.4179 -7.2836 0.1694 0 7
-14.7025 -1.7094 -7.2605 0.1699 0 7
-14.6100 -1.9973 -7.2332 0.1706 0 7
-14.5037 -2.2808 -7.2018 0.1713 0 7
-14.3839 -2.5594 -7.1665 0.1722 0 7
-14.2511 -2.8327 -7.1273 0.1731 0 7
-14.1060 -3.1000 -7.0844 0.1742 0 7
-13.9489 -3.3610 -7.0381 0.1753 0 7
-13.7804 -3.6151 -6.9883 0.1766 0 7
-13.6012 -3.8621 -6.9354 0.1779 0 7
-13.4117 -4.1016 -6.8795 0.1793 0 7
-13.2127 -4.3332 -6.8208 0.1809 0 7
-13.0049 -4.5567 -6.7594 0.1825 0 7
-12.7888 -4.7719 -6.6957 0.1843 0 7
-12.5650 -4.9786 -6.6296 0.1861 0 7
-12.3343 -5.1766 -6.5615 0.1880 0 7
-12.0974 -5.3659 -6.4916 0.1901 0 7
-11.8548 -5.5463 -6.4200 0.1922 0 7
-11.6072 -5.7178 -6.3469 0.1944 0 7
-11.3552 -5.8803 -6.2725 0.1967 0 7
-11.0994 -6.0340 -6.1970 0.1991 0 7
-10.8404 -6.1789 -6.1206 0.2016 0 7
-10.5787 -6.3150 -6.0434 0.2042 0 7
-10.3149 -6.4424 -5.9655 0.2068 0 7
-10.0496 -6.5613 -5.8872 0.2096 0 7
-9.7831 -6.6718 -5.8085 0.2124 0 7
-9.5160 -6.7740 -5.7297 0.2153 0 7
-9.2486 -6.8681 -5.6508 0.2183 0 7
-8.9816 -6.9544 -5.5720 0.2214 0 7
-8.7151 -7.0329 -5.4933 0.2246 0 7
-8.4496 -7.1040 -5.4150 0.2279 0 7
-8.1854 -7.1678 -5.3370 0.2312 0 7
-7.9228 -7.2246 -5.2595 0.2346 0 7
-7.6622 -7.2745 -5.1826 0.2381 0 7
-7.4037 -7.3178 -5.1063 0.2416 0 7
-7.1476 -7.3547 -5.0307 0.2453 0 7
-6.6426 -7.1160 -4.7750 0.4447 0 8
-6.3987 -7.1373 -4.7020 0.2527 0 8
-6.1603 -7.1558 -4.6316 0.2566 0 8
-5.9248 -7.1691 -4.5621 0.2605 0 8
-5.6926 -7.1773 -4.4936 0.2645 0 8
-5.4637 -7.1808 -4.4260 0.2685 0 8
-5.2382 -7.1796 -4.3594 0.2726 0 8
-5.0161 -7.1740 -4.2939 0.2767 0 8
-4.7977 -7.1643 -4.2295 0.2810 0 8
-4.5829 -7.1505 -4.1660 0.2852 0 8
-4.3717 -7.1329 -4.1037 0.2896 0 8
-4.1643 -7.1117 -4.0425 0.2940 0 8
-3.9606 -7.0870 -3.9824 0.2984 0 8
-3.7607 -7.0591 -3.9234 0.3029 0 8
-3.5646 -7.0281 -3.8655 0.3074 0 8
-3.3722 -6.9941 -3.8087 0.3120 0 8
-3.1837 -6.9573 -3.7531 0.3166 0 8
-2.9988 -6.9179 -3.6985 0.3213 0 8
-2.8178 -6.8760 -3.6451 0.3260 0 8
-2.6404 -6.8318 -3.5927 0.3308 0 8
-2.4668 -6.7853 -3.5415 0.3355 0 8
-2.2968 -6.7367 -3.4913 0.3404 0 8
-2.1304 -6.6862 -3.4422 0.3452 0 8
-1.9677 -6.6338 -3.3942 0.3501 0 8
-1.8085 -6.5797 -3.3472 0.3550 0 8
-1.6527 -6.5239 -3.3012 0.3600 0 8
-1.5041 -6.4822 -3.2641 0.9212 0 8
1.6614 -4.3810 -2.4307 0.5308 0 7
1.7339 -4.3084 -2.4093 0.5355 0 7
1.8044 -4.2358 -2.3885 0.5401 0 7
1.8732 -4.1629 -2.3682 0.5448 0 7
1.9402 -4.0900 -2.3484 0.5494 0 7
2.0055 -4.0169 -2.3292 0.5539 0 7
2.0690 -3.9437 -2.3104 0.5584 0 7
2.1310 -3.8704 -2.2921 0.5629 0 7
2.1912 -3.7971 -2.2743 0.5673 0 7
2.2499 -3.7236 -2.2570 0.5716 0 7
2.3070 -3.6502 -2.2401 0.5759 0 7
2.3625 -3.5767 -2.2238 0.5802 0 7
2.4166 -3.5031 -2.2078 0.5843 0 7
2.4690 -3.4296 -2.1923 0.5885 0 7
2.5202 -3.3560 -2.1772 0.5925 0 7
2.5698 -3.2824 -2.1626 0.5966 0 7
2.6179 -3.2088 -2.1484 0.6005 0 7
2.6647 -3.1352 -2.1346 0.6044 0 7
2.7101 -3.0617 -2.1212 0.6082 0 7
2.7542 -2.9881 -2.1082 0.6120 0 7
2.7969 -2.9146 -2.0956 0.6156 0 7
2.8383 -2.8411 -2.0833 0.6193 0 7
2.8784 -2.7676 -2.0715 0.6228 0 7
2.9173 -2.6941 -2.0600 0.6263 0 7
2.9548 -2.6207 -2.0490 0.6297 0 7
2.9912 -2.5473 -2.0382 0.6330 0 7
3.0264 -2.4740 -2.0278 0.6362 0 7
3.0603 -2.4007 -2.0178 0.6394 0 7
3.0931 -2.3274 -2.0081 0.6424 0 7
3.1247 -2.2542 -1.9988 0.6454 0 7
3.1551 -2.1811 -1.9898 0.6484 0 7
3.1844 -2.1080 -1.9812 0.6512 0 7
3.2126 -2.0349 -1.9729 0.6539 0 7
3.2397 -1.9619 -1.9649 0.6566 0 7
3.2658 -1.8889 -1.9572 0.6592 0 7
3.2907 -1.8160 -1.9498 0.6617 0 7
3.3145 -1.7431 -1.9428 0.6641 0 7
3.3373 -1.6703 -1.9361 0.6664 0 7
3.3591 -1.5975 -1.9296 0.6686 0 7
3.3798 -1.5248 -1.9235 0.6707 0 7
3.3995 -1.4521 -1.9177 0.6727 0 7
3.4181 -1.3794 -1.9122 0.6747 0 7
3.4358 -1.3068 -1.9070 0.6765 0 7
3.4525 -1.2343 -1.9021 0.6783 0 7
3.4681 -1.1618 -1.8975 0.6799 0 7
3.4828 -1.0893 -1.8931 0.6815 0 7
3.4965 -1.0168 -1.8891 0.6829 0 7
3.5093 -0.9444 -1.8853 0.6843 0 7
3.5211 -0.8720 -1.8818 0.6856 0 7
3.5319 -0.7996 -1.8786 0.6867 0 7
3.5417 -0.7273 -1.8757 0.6878 0 7
3.5507 -0.6550 -1.8731 0.6888 0 7
3.5586 -0.5827 -1.8707 0.6896 0 7
3.5657 -0.5105 -1.8687 0.6904 0 7
3.5718 -0.4382 -1.8668 0.6911 0 7
3.5769 -0.3660 -1.8653 0.6916 0 7
3.5812 -0.2938 -1.8641 0.6921 0 7
3.5845 -0.2216 -1.8631 0.6925 0 7
3.5869 -0.1494 -1.8624 0.6927 0 7
3.5883 -0.0772 -1.8620 0.6929 0 7
3.5888 -0.0050 -1.8618 0.6929 0 7
3.5884 0.0672 -1.8619 0.6929 0 7
3.5871 0.1394 -1.8623 0.6928 0 7
3.5848 0.2116 -1.8630 0.6925 0 7
3.5817 0.2838 -1.8639 0.6922 0 7
3.5776 0.3561 -1.8651 0.6917 0 7
3.5725 0.4283 -1.8666 0.6912 0 7
3.5666 0.5005 -1.8684 0.6905 0 7
3.5596 0.5728 -1.8704 0.6897 0 7
3.5518 0.6451 -1.8727 0.6889 0 7
3.5430 0.7174 -1.8753 0.6879 0 7
3.5333 0.7897 -1.8782 0.6869 0 7
3.5226 0.8621 -1.8814 0.6857 0 7
3.5109 0.9344 -1.8848 0.6845 0 7
3.4983 1.0069 -1.8885 0.6831 0 7
3.4848 1.0793 -1.8925 0.6817 0 7
3.4702 1.1518 -1.8968 0.6801 0 7
3.4547 1.2243 -1.9014 0.6785 0 7
3.4381 1.2969 -1.9063 0.6768 0 7
3.4206 1.3694 -1.9115 0.6749 0 7
3.4021 1.4421 -1.9169 0.6730 0 7
3.3825 1.5148 -1.9227 0.6710 0 7
3.3620 1.5875 -1.9288 0.6689 0 7
3.3404 1.6603 -1.9352 0.6667 0 7
3.3177 1.7331 -1.9418 0.6644 0 7
3.2940 1.8060 -1.9488 0.6620 0 7
3.2692 1.8789 -1.9562 0.6595 0 7
3.2434 1.9519 -1.9638 0.6570 0 7
3.2164 2.0249 -1.9717 0.6543 0 7
3.1111 2.0470 -1.9320 0.5914 0 8
3.0429 2.0911 -1.9154 0.6488 0 8
3.0138 2.1616 -1.9241 0.6458 0 8
2.9835 2.2321 -1.9330 0.6429 0 8
2.9521 2.3026 -1.9423 0.6398 0 8
2.9195 2.3732 -1.9519 0.6367 0 8
2.8858 2.4439 -1.9618 0.6334 0 8
2.8510 2.5145 -1.9721 0.6301 0 8
2.8149 2.5852 -1.9827 0.6268 0 8
2.7776 2.6560 -1.9937 0.6233 0 8
2.6765 2.6643 -1.9592 0.6002 0 19
2.6077 2.7025 -1.9483 0.6161 0 19
2.5682 2.7709 -1.9600 0.6125 0 19
2.6072 2.9291 -2.0343 0.6087 0 19
2.5639 2.9997 -2.0471 0.6049 0 19
2.5191 3.0704 -2.0603 0.6010 0 19
2.4731 3.1410 -2.0739 0.5971 0 19
2.4256 3.2116 -2.0879 0.5931 0 19
2.3417 3.2338 -2.0713 0.6983 0 19
2.2553 3.2502 -2.0523 0.5849 0 19
2.2053 3.3186 -2.0671 0.5807 0 19
2.2295 3.5061 -2.1555 0.5765 0 8
2.1747 3.5768 -2.1717 0.5722 0 8
2.1185 3.6475 -2.1883 0.5679 0 8
2.0606 3.7182 -2.2053 0.5635 0 8
2.0012 3.7888 -2.2229 0.5591 0 8
1.9401 3.8593 -2.2409 0.5546 0 8
1.8775 3.9297 -2.2594 0.5500 0 8
1.8132 4.0000 -2.2783 0.5454 0 8
1.7472 4.0701 -2.2978 0.5408 0 8
1.6794 4.1402 -2.3178 0.5362 0 8
1.6100 4.2100 -2.3383 0.5314 0 8
1.5386 4.2797 -2.3594 0.5267 0 8
1.4655 4.3492 -2.3809 0.5219 0 8
1.3906 4.4185 -2.4031 0.5171 0 8
1.3137 4.4875 -2.4257 0.5123 0 8
1.2349 4.5563 -2.4490 0.5074 0 8
1.1541 4.6248 -2.4728 0.5025 0 8
1.0714 4.6930 -2.4973 0.4976 0 8
0.9865 4.7608 -2.5223 0.4927 0 8
0.8996 4.8283 -2.5479 0.4877 0 8
0.8106 4.8954 -2.5742 0.4827 0 8
0.7194 4.9621 -2.6011 0.4778 0 8
0.6260 5.0282 -2.6287 0.4727 0 8
0.5304 5.0939 -2.6569 0.4677 0 8
