ply
format ascii 1.0
element vertex 1357
property float32 x
property float32 y
property float32 z
property float32 CosAngle
property uint32 ObjIdx
property uint32 ObjTag
end_header
-3.8370 -9.8562 -4.0532 0.2473 0 7
-3.5666 -9.7358 -3.9734 0.2523 0 7
-3.3049 -9.6148 -3.8962 0.2573 0 7
-3.0514 -9.4934 -3.8213 0.2623 0 7
-2.8060 -9.3716 -3.7489 0.2674 0 7
-2.5682 -9.2497 -3.6787 0.2725 0 7
-2.3380 -9.1276 -3.6108 0.2776 0 7
-2.1149 -9.0055 -3.5450 0.2828 0 7
-1.8989 -8.8834 -3.4812 0.2879 0 7
-1.6896 -8.7615 -3.4194 0.2932 0 7
-1.4869 -8.6397 -3.3596 0.2984 0 7
-1.2904 -8.5183 -3.3016 0.3036 0 7
-1.1001 -8.3971 -3.2454 0.3089 0 7
-0.9157 -8.2763 -3.1910 0.3141 0 7
-0.7369 -8.1559 -3.1382 0.3194 0 7
-0.5636 -8.0359 -3.0871 0.3247 0 7
-0.3957 -7.9164 -3.0375 0.3300 0 7
-0.2330 -7.7975 -2.9895 0.3353 0 7
-0.0752 -7.6790 -2.9429 0.3406 0 7
0.0779 -7.5612 -2.8977 0.3459 0 7
0.2262 -7.4439 -2.8540 0.3512 0 7
0.3700 -7.3272 -2.8115 0.3565 0 7
0.5095 -7.2111 -2.7703 0.3618 0 7
0.6448 -7.0957 -2.7304 0.3671 0 7
0.7760 -6.9809 -2.6917 0.3724 0 7
0.9032 -6.8667 -2.6541 0.3777 0 7
1.0266 -6.7532 -2.6177 0.3829 0 7
1.1463 -6.6404 -2.5824 0.3882 0 7
1.2625 -6.5282 -2.5481 0.3934 0 7
1.3751 -6.4167 -2.5148 0.3986 0 7
1.4844 -6.3059 -2.4826 0.4038 0 7
1.5904 -6.1957 -2.4513 0.4089 0 7
1.6933 -6.0862 -2.4209 0.4141 0 7
1.7930 -5.9774 -2.3915 0.4192 0 7
1.8899 -5.8692 -2.3629 0.4242 0 7
1.9838 -5.7617 -2.3352 0.4293 0 7
2.0749 -5.6548 -2.3083 0.4343 0 7
2.1634 -5.5486 -2.2822 0.4392 0 7
2.2491 -5.4430 -2.2569 0.4442 0 7
2.3323 -5.3380 -2.2323 0.4490 0 7
2.4130 -5.2337 -2.2085 0.4539 0 7
2.4913 -5.1299 -2.1854 0.4587 0 7
2.5671 -5.0268 -2.1630 0.4634 0 7
2.6407 -4.9243 -2.1413 0.4681 0 7
2.7122 -4.8223 -2.1202 0.4728 0 7
2.7814 -4.7209 -2.0998 0.4774 0 7
2.8485 -4.6202 -2.0800 0.4819 0 7
2.9136 -4.5199 -2.0608 0.4864 0 7
2.9766 -4.4202 -2.0422 0.4909 0 7
3.0377 -4.3211 -2.0241 0.4952 0 7
3.0969 -4.2224 -2.0067 0.4995 0 7
3.1542 -4.1243 -1.9898 0.5038 0 7
3.2098 -4.0267 -1.9734 0.5080 0 7
3.2635 -3.9296 -1.9575 0.5121 0 7
3.3155 -3.8330 -1.9421 0.5161 0 7
3.3659 -3.7368 -1.9273 0.5201 0 7
3.4146 -3.6411 -1.9129 0.5240 0 7
3.4616 -3.5459 -1.8990 0.5279 0 7
3.5071 -3.4510 -1.8856 0.5316 0 7
3.5511 -3.3567 -1.8726 0.5353 0 7
3.5936 -3.2627 -1.8601 0.5389 0 7
3.6346 -3.1691 -1.8480 0.5424 0 7
3.6741 -3.0760 -1.8363 0.5459 0 7
3.7123 -2.9832 -1.8250 0.5493 0 7
3.7491 -2.8907 -1.8142 0.5525 0 7
3.7844 -2.7987 -1.8037 0.5557 0 7
3.8185 -2.7070 -1.7937 0.5588 0 7
3.8512 -2.6156 -1.7840 0.5619 0 7
3.8826 -2.5245 -1.7748 0.5648 0 7
3.9128 -2.4338 -1.7658 0.5677 0 7
3.9418 -2.3433 -1.7573 0.5704 0 7
3.9694 -2.2532 -1.7491 0.5731 0 7
3.9959 -2.1633 -1.7413 0.5757 0 7
4.0212 -2.0737 -1.7338 0.5781 0 7
4.0454 -1.9843 -1.7267 0.5805 0 7
4.0684 -1.8952 -1.7199 0.5828 0 7
4.0902 -1.8064 -1.7135 0.5850 0 7
4.1109 -1.7177 -1.7074 0.5871 0 7
4.1305 -1.6293 -1.7016 0.5891 0 7
4.1491 -1.5410 -1.6961 0.5910 0 7
4.1665 -1.4530 -1.6910 0.5928 0 7
4.1829 -1.3651 -1.6862 0.5945 0 7
4.1981 -1.2774 -1.6816 0.5961 0 7
4.2124 -1.1899 -1.6774 0.5976 0 7
4.2256 -1.1025 -1.6735 0.5990 0 7
4.2378 -1.0153 -1.6699 0.6003 0 7
4.2489 -0.9281 -1.6667 0.6014 0 7
4.2591 -0.8411 -1.6637 0.6025 0 7
4.2682 -0.7542 -1.6610 0.6035 0 7
4.2762 -0.6674 -1.6586 0.6044 0 7
4.2834 -0.5806 -1.6565 0.6051 0 7
4.2895 -0.4940 -1.6547 0.6058 0 7
4.2946 -0.4074 -1.6532 0.6064 0 7
4.2988 -0.3208 -1.6519 0.6068 0 7
4.3019 -0.2343 -1.6510 0.6071 0 7
4.3041 -0.1478 -1.6504 0.6074 0 7
4.3053 -0.0614 -1.6500 0.6075 0 7
4.3055 0.0251 -1.6500 0.6075 0 7
4.3047 0.1116 -1.6502 0.6074 0 7
4.3029 0.1981 -1.6507 0.6073 0 7
4.3002 0.2846 -1.6515 0.6070 0 7
4.2965 0.3711 -1.6526 0.6066 0 7
4.2918 0.4577 -1.6540 0.6060 0 7
4.2861 0.5443 -1.6557 0.6054 0 7
4.2794 0.6310 -1.6577 0.6047 0 7
4.2717 0.7178 -1.6599 0.6039 0 7
4.2630 0.8047 -1.6625 0.6030 0 7
4.2532 0.8917 -1.6654 0.6019 0 7
4.2426 0.9787 -1.6685 0.6008 0 7
4.2308 1.0659 -1.6720 0.5995 0 7
4.2180 1.1533 -1.6758 0.5982 0 7
4.0825 1.2048 -1.6312 0.5693 0 8
4.0352 1.2795 -1.6222 0.5952 0 8
4.0199 1.3640 -1.6268 0.5935 0 8
4.0036 1.4488 -1.6316 0.5918 0 8
3.9861 1.5337 -1.6367 0.5899 0 8
3.9677 1.6188 -1.6422 0.5880 0 8
3.9482 1.7041 -1.6479 0.5859 0 8
3.9275 1.7896 -1.6540 0.5838 0 8
3.9059 1.8753 -1.6604 0.5815 0 8
3.8831 1.9613 -1.6671 0.5792 0 8
3.8592 2.0475 -1.6742 0.5767 0 8
3.8341 2.1339 -1.6816 0.5742 0 8
3.8080 2.2206 -1.6893 0.5716 0 8
3.7805 2.3076 -1.6974 0.5688 0 8
3.7520 2.3949 -1.7058 0.5660 0 8
3.7223 2.4825 -1.7146 0.5631 0 8
3.6912 2.5704 -1.7237 0.5602 0 8
3.6590 2.6586 -1.7332 0.5571 0 8
3.6255 2.7471 -1.7431 0.5539 0 8
3.5906 2.8360 -1.7534 0.5507 0 8
3.5544 2.9252 -1.7641 0.5473 0 8
3.5169 3.0148 -1.7752 0.5439 0 8
3.4780 3.1047 -1.7866 0.5404 0 8
3.4377 3.1951 -1.7985 0.5369 0 8
3.3960 3.2858 -1.8108 0.5332 0 8
3.3527 3.3770 -1.8236 0.5295 0 8
3.3080 3.4685 -1.8368 0.5257 0 8
3.2618 3.5605 -1.8504 0.5218 0 8
3.2139 3.6529 -1.8646 0.5178 0 8
3.1645 3.7458 -1.8792 0.5138 0 8
3.1134 3.8391 -1.8942 0.5097 0 8
3.0607 3.9329 -1.9098 0.5056 0 8
3.0061 4.0272 -1.9259 0.5014 0 8
2.9499 4.1220 -1.9425 0.4971 0 8
2.8918 4.2173 -1.9596 0.4927 0 8
2.8319 4.3131 -1.9773 0.4883 0 8
2.7700 4.4094 -1.9955 0.4839 0 8
2.7062 4.5062 -2.0144 0.4793 0 8
2.6404 4.6036 -2.0338 0.4748 0 8
2.5725 4.7016 -2.0538 0.4701 0 8
2.5025 4.8001 -2.0745 0.4655 0 8
2.4303 4.8991 -2.0958 0.4607 0 8
2.3559 4.9988 -2.1177 0.4559 0 8
2.2792 5.0991 -2.1404 0.4511 0 8
2.2001 5.1999 -2.1637 0.4462 0 8
2.1185 5.3014 -2.1878 0.4413 0 8
2.0344 5.4035 -2.2126 0.4363 0 8
1.9478 5.5062 -2.2382 0.4314 0 8
1.8585 5.6095 -2.2646 0.4264 0 8
1.7664 5.7134 -2.2917 0.4213 0 8
1.6715 5.8180 -2.3198 0.4162 0 8
1.5737 5.9232 -2.3486 0.4111 0 8
0.8533 3.4929 -1.3779 0.7810 0 5
0.7833 3.5106 -1.3784 0.4654 0 5
1.2618 6.2427 -2.4407 0.3956 0 8
1.1514 6.3504 -2.4733 0.3904 0 8
1.0376 6.4589 -2.5069 0.3851 0 8
0.9202 6.5679 -2.5415 0.3799 0 8
0.7992 6.6776 -2.5772 0.3746 0 8
0.6745 6.7879 -2.6141 0.3693 0 8
0.5458 6.8989 -2.6520 0.3641 0 8
0.4132 7.0104 -2.6912 0.3588 0 8
0.2764 7.1226 -2.7316 0.3535 0 8
0.1354 7.2353 -2.7732 0.3481 0 8
-0.0101 7.3486 -2.8161 0.3428 0 8
-0.1601 7.4625 -2.8604 0.3375 0 8
-0.3150 7.5769 -2.9061 0.3322 0 8
-0.4746 7.6918 -2.9532 0.3269 0 8
-0.6393 7.8071 -3.0019 0.3216 0 8
-0.8091 7.9230 -3.0520 0.3163 0 8
-0.9845 8.0392 -3.1038 0.3111 0 8
-1.1654 8.1558 -3.1572 0.3058 0 8
-1.3522 8.2727 -3.2123 0.3006 0 8
-1.5449 8.3899 -3.2692 0.2953 0 8
-1.8105 8.8323 -3.4551 0.2901 0 7
-2.0237 8.9543 -3.5180 0.2849 0 7
-2.2437 9.0764 -3.5829 0.2798 0 7
-2.4709 9.1985 -3.6500 0.2746 0 7
-2.7055 9.3205 -3.7192 0.2695 0 7
-2.9477 9.4424 -3.7907 0.2644 0 7
-3.1977 9.5640 -3.8645 0.2594 0 7
-3.4560 9.6852 -3.9408 0.2544 0 7
-3.7227 9.8058 -4.0195 0.2494 0 7
-3.9982 9.9258 -4.1008 0.2444 0 7
-4.2824 10.0451 -4.1847 0.2395 0 7
-4.5762 10.1633 -4.2714 0.2347 0 7
-4.8795 10.2804 -4.3609 0.2299 0 7
-5.1928 10.3962 -4.4534 0.2251 0 7
-5.5163 10.5104 -4.5488 0.2204 0 7
-5.8504 10.6229 -4.6474 0.2157 0 7
-6.1953 10.7334 -4.7493 0.2111 0 7
-6.5514 10.8416 -4.8544 0.2065 0 7
-6.9191 10.9472 -4.9629 0.2020 0 7
-7.2986 11.0500 -5.0749 0.1975 0 7
-7.6903 11.1495 -5.1905 0.1931 0 7
-8.0945 11.2455 -5.3098 0.1888 0 7
-8.5115 11.3376 -5.4329 0.1845 0 7
-8.9415 11.4252 -5.5598 0.1803 0 7
-9.3850 11.5081 -5.6907 0.1761 0 7
-9.4800 11.1593 -5.6112 0.1721 0 8
-9.9337 11.2284 -5.7451 0.1681 0 8
-10.4010 11.2914 -5.8831 0.1641 0 8
-10.8820 11.3477 -6.0251 0.1602 0 8
-11.3771 11.3967 -6.1712 0.1565 0 8
-11.8861 11.4378 -6.3214 0.1527 0 8
-12.4093 11.4704 -6.4758 0.1491 0 8
-12.4910 11.0891 -6.4010 0.5809 0 0
-12.5348 10.6857 -6.3121 0.6692 0 0
-12.5964 10.3087 -6.2376 0.6772 0 0
-12.6543 9.9386 -6.1662 0.6850 0 0
-12.7088 9.5751 -6.0979 0.6927 0 0
-12.7601 9.2180 -6.0324 0.7002 0 0
-12.7584 8.8325 -5.9466 0.7584 0 0
-12.8076 8.4912 -5.8888 0.7658 0 0
-12.8541 8.1553 -5.8337 0.7731 0 0
-12.8980 7.8243 -5.7811 0.7801 0 0
-12.9391 7.4982 -5.7309 0.7869 0 0
-12.9566 7.1646 -5.6738 0.7503 0 0
-12.9500 6.8251 -5.6097 0.8232 0 0
-12.9801 6.5113 -5.5650 0.8298 0 0
-13.0080 6.2016 -5.5225 0.8362 0 0
-13.0339 5.8958 -5.4821 0.8423 0 0
-13.0579 5.5936 -5.4438 0.8483 0 0
-13.0661 5.2891 -5.4018 0.8125 0 0
-13.0388 4.9758 -5.3482 0.8207 0 0
-13.0366 4.6773 -5.3077 0.8969 0 0
-13.0589 4.3913 -5.2798 0.9016 0 0
-13.0797 4.1079 -5.2538 0.9061 0 0
-13.0988 3.8267 -5.2295 0.9103 0 0
-13.1164 3.5476 -5.2071 0.9142 0 0
-13.1280 3.2693 -5.1845 0.9138 0 0
-13.1332 2.9918 -5.1618 0.9178 0 0
-13.1340 2.7158 -5.1397 0.9108 0 0
-13.1246 2.4402 -5.1158 0.9150 0 0
-13.1140 2.1667 -5.0937 0.9190 0 0
-13.1021 1.8953 -5.0732 0.9227 0 0
-13.0891 1.6258 -5.0545 0.9261 0 0
-13.0748 1.3581 -5.0375 0.9293 0 0
-13.1002 1.0953 -5.0377 0.9225 0 0
-13.1247 0.8324 -5.0397 0.9222 0 0
-13.1248 0.5681 -5.0344 0.9170 0 0
-13.1136 0.3039 -5.0267 0.9184 0 0
-13.1009 0.0405 -5.0205 0.9195 0 0
-13.0868 -0.2224 -5.0159 0.9204 0 0
-13.0714 -0.4848 -5.0127 0.9210 0 0
-13.0620 -0.7473 -5.0138 0.9082 0 0
-13.0596 -1.0106 -5.0197 0.9071 0 0
-13.0560 -1.2746 -5.0271 0.9058 0 0
-13.0484 -1.5389 -5.0350 0.9052 0 0
-13.0390 -1.8040 -5.0444 0.9035 0 0
-13.0284 -2.0699 -5.0553 0.9015 0 0
-13.0161 -2.3368 -5.0678 0.8993 0 0
-13.0022 -2.6048 -5.0817 0.8968 0 0
-12.7194 -3.3256 -5.3807 0.8950 0 0
-12.6949 -3.5931 -5.3998 0.8919 0 0
-12.6686 -3.8620 -5.4206 0.8884 0 0
-12.6407 -4.1327 -5.4430 0.8848 0 0
-12.6109 -4.4052 -5.4672 0.8809 0 0
-12.5793 -4.6796 -5.4931 0.8767 0 0
-12.5513 -4.9583 -5.5233 0.8320 0 0
-12.5356 -5.2455 -5.5616 0.8263 0 0
-12.5008 -5.5284 -5.5942 0.8531 0 0
-10.0159 -4.6722 -4.5233 0.9924 0 5
-12.4097 -6.0951 -5.6586 0.8434 0 0
-12.3608 -6.3823 -5.6936 0.8382 0 0
-12.3095 -6.6723 -5.7305 0.8328 0 0
-12.2560 -6.9653 -5.7696 0.8272 0 0
-12.1922 -7.2566 -5.8069 0.8490 0 0
-12.1257 -7.5509 -5.8463 0.8358 0 0
-12.0582 -7.8492 -5.8886 0.8298 0 0
-11.9883 -8.1510 -5.9332 0.8236 0 0
-11.9154 -8.4563 -5.9800 0.8171 0 0
-11.8399 -8.7654 -6.0292 0.8105 0 0
-11.7614 -9.0785 -6.0809 0.8036 0 0
-11.5904 -9.3238 -6.0881 0.4734 0 0
-11.4220 -9.5724 -6.0993 0.4531 0 0
-11.2516 -9.8208 -6.1124 0.4650 0 0
-10.9080 -9.9138 -6.0327 0.1694 0 8
-10.4852 -9.9213 -5.9080 0.1730 0 8
-10.0712 -9.9203 -5.7858 0.1766 0 8
-9.6660 -9.9113 -5.6661 0.1804 0 8
-9.2695 -9.8948 -5.5491 0.1842 0 8
-8.8821 -9.8712 -5.4348 0.1880 0 8
-8.7292 -10.1021 -5.4643 0.7118 0 8
-8.4450 -10.1794 -5.4133 0.1960 0 7
-8.0708 -10.1358 -5.3028 0.2001 0 7
-7.7059 -10.0867 -5.1951 0.2042 0 7
-7.3502 -10.0325 -5.0901 0.2085 0 7
-7.0037 -9.9736 -4.9879 0.2127 0 7
-6.6661 -9.9102 -4.8882 0.2171 0 7
-6.3375 -9.8428 -4.7912 0.2215 0 7
-6.0176 -9.7717 -4.6968 0.2259 0 7
-5.7062 -9.6971 -4.6049 0.2304 0 7
-5.4035 -9.6193 -4.5156 0.2350 0 7
-5.1090 -9.5386 -4.4286 0.2396 0 7
-4.8226 -9.4553 -4.3441 0.2443 0 7
-4.5441 -9.3695 -4.2619 0.2490 0 7
-4.2735 -9.2816 -4.1820 0.2537 0 7
-4.0103 -9.1916 -4.1044 0.2585 0 7
-3.7545 -9.0998 -4.0289 0.2634 0 7
-3.5061 -9.0064 -3.9555 0.2682 0 7
-3.2647 -8.9115 -3.8843 0.2732 0 7
-3.0302 -8.8152 -3.8150 0.2781 0 7
-2.8021 -8.7178 -3.7478 0.2831 0 7
-2.5807 -8.6194 -3.6824 0.2881 0 7
-2.3657 -8.5200 -3.6189 0.2932 0 7
-2.1567 -8.4198 -3.5573 0.2983 0 7
-1.9538 -8.3189 -3.4974 0.3034 0 7
-1.7566 -8.2174 -3.4392 0.3085 0 7
-1.5651 -8.1154 -3.3826 0.3137 0 7
-1.3790 -8.0130 -3.3278 0.3189 0 7
-1.1983 -7.9103 -3.2744 0.3240 0 7
-1.0229 -7.8072 -3.2226 0.3293 0 7
-0.8523 -7.7040 -3.1723 0.3345 0 7
-0.6867 -7.6006 -3.1234 0.3397 0 7
-0.5259 -7.4971 -3.0759 0.3450 0 7
-0.3695 -7.3936 -3.0298 0.3502 0 7
-0.2178 -7.2901 -2.9850 0.3555 0 7
-0.0703 -7.1867 -2.9415 0.3607 0 7
0.0730 -7.0833 -2.8992 0.3660 0 7
0.2121 -6.9801 -2.8581 0.3712 0 7
0.3473 -6.8771 -2.8182 0.3765 0 7
0.4787 -6.7742 -2.7794 0.3818 0 7
0.6063 -6.6716 -2.7418 0.3870 0 7
0.7302 -6.5692 -2.7052 0.3922 0 7
0.8507 -6.4672 -2.6696 0.3975 0 7
0.9677 -6.3653 -2.6351 0.4027 0 7
1.0814 -6.2638 -2.6016 0.4079 0 7
1.1918 -6.1627 -2.5690 0.4130 0 7
1.2991 -6.0618 -2.5373 0.4182 0 7
1.4034 -5.9614 -2.5065 0.4233 0 7
1.5045 -5.8613 -2.4767 0.4284 0 7
1.6030 -5.7615 -2.4476 0.4335 0 7
1.6986 -5.6622 -2.4194 0.4386 0 7
1.7914 -5.5632 -2.3920 0.4436 0 7
1.8816 -5.4646 -2.3654 0.4486 0 7
1.9691 -5.3664 -2.3395 0.4535 0 7
2.0541 -5.2687 -2.3144 0.4585 0 7
2.1368 -5.1713 -2.2900 0.4633 0 7
2.2171 -5.0743 -2.2664 0.4682 0 7
2.2950 -4.9777 -2.2434 0.4730 0 7
2.3706 -4.8816 -2.2210 0.4777 0 7
2.4441 -4.7858 -2.1993 0.4824 0 7
2.5154 -4.6904 -2.1783 0.4871 0 7
2.5846 -4.5955 -2.1579 0.4917 0 7
2.6518 -4.5009 -2.1381 0.4963 0 7
2.7169 -4.4068 -2.1188 0.5008 0 7
2.7802 -4.3130 -2.1001 0.5052 0 7
2.8415 -4.2196 -2.0821 0.5096 0 7
2.9010 -4.1266 -2.0645 0.5140 0 7
2.9587 -4.0340 -2.0475 0.5182 0 7
3.0146 -3.9417 -2.0310 0.5224 0 7
3.0687 -3.8499 -2.0150 0.5266 0 7
3.1213 -3.7583 -1.9995 0.5307 0 7
3.1721 -3.6672 -1.9845 0.5347 0 7
3.2214 -3.5764 -1.9699 0.5386 0 7
3.2690 -3.4859 -1.9559 0.5425 0 7
3.3151 -3.3957 -1.9423 0.5463 0 7
3.3597 -3.3059 -1.9291 0.5500 0 7
3.4028 -3.2164 -1.9164 0.5537 0 7
3.4445 -3.1273 -1.9041 0.5573 0 7
3.4847 -3.0384 -1.8922 0.5607 0 7
3.5236 -2.9499 -1.8807 0.5642 0 7
3.5610 -2.8616 -1.8697 0.5675 0 7
3.5971 -2.7736 -1.8590 0.5708 0 7
3.6319 -2.6859 -1.8488 0.5739 0 7
3.6654 -2.5985 -1.8389 0.5770 0 7
3.6977 -2.5113 -1.8294 0.5800 0 7
3.7286 -2.4243 -1.8202 0.5829 0 7
3.7583 -2.3377 -1.8115 0.5857 0 7
3.7868 -2.2512 -1.8030 0.5885 0 7
3.8141 -2.1650 -1.7950 0.5911 0 7
3.8402 -2.0790 -1.7873 0.5937 0 7
3.8652 -1.9932 -1.7799 0.5961 0 7
3.8891 -1.9076 -1.7729 0.5985 0 7
3.9117 -1.8223 -1.7662 0.6008 0 7
3.9333 -1.7371 -1.7598 0.6029 0 7
3.9538 -1.6520 -1.7538 0.6050 0 7
3.9732 -1.5672 -1.7480 0.6070 0 7
3.9914 -1.4825 -1.7426 0.6089 0 7
4.0087 -1.3979 -1.7376 0.6107 0 7
4.0249 -1.3136 -1.7328 0.6123 0 7
4.0400 -1.2293 -1.7283 0.6139 0 7
4.0541 -1.1452 -1.7242 0.6154 0 7
4.0671 -1.0612 -1.7203 0.6168 0 7
4.0792 -0.9773 -1.7168 0.6181 0 7
4.0902 -0.8935 -1.7135 0.6192 0 7
4.1002 -0.8097 -1.7105 0.6203 0 7
4.1093 -0.7261 -1.7079 0.6213 0 7
4.1173 -0.6426 -1.7055 0.6221 0 7
4.1243 -0.5591 -1.7034 0.6229 0 7
4.1304 -0.4756 -1.7016 0.6235 0 7
4.1355 -0.3923 -1.7001 0.6241 0 7
4.1395 -0.3089 -1.6989 0.6245 0 7
4.1427 -0.2256 -1.6980 0.6249 0 7
4.1448 -0.1423 -1.6974 0.6251 0 7
4.1460 -0.0591 -1.6970 0.6252 0 7
4.1462 0.0242 -1.6970 0.6253 0 7
4.1454 0.1074 -1.6972 0.6252 0 7
4.1437 0.1907 -1.6977 0.6250 0 7
4.1410 0.2740 -1.6985 0.6247 0 7
4.1373 0.3574 -1.6996 0.6243 0 7
4.1326 0.4407 -1.7010 0.6238 0 7
4.1270 0.5241 -1.7026 0.6232 0 7
4.1204 0.6076 -1.7046 0.6225 0 7
4.1128 0.6911 -1.7068 0.6216 0 7
4.1041 0.7747 -1.7094 0.6207 0 7
4.0945 0.8584 -1.7122 0.6197 0 7
4.0839 0.9421 -1.7154 0.6186 0 7
4.0723 1.0260 -1.7188 0.6173 0 7
4.0597 1.1100 -1.7225 0.6160 0 7
4.0460 1.1940 -1.7265 0.6146 0 7
3.8924 1.2342 -1.6712 0.5882 0 8
3.8678 1.3124 -1.6717 0.6114 0 8
3.8516 1.3938 -1.6764 0.6096 0 8
3.8344 1.4753 -1.6815 0.6078 0 8
3.8162 1.5570 -1.6869 0.6059 0 8
3.7969 1.6388 -1.6926 0.6038 0 8
3.7766 1.7208 -1.6986 0.6017 0 8
3.7552 1.8029 -1.7049 0.5995 0 8
3.7327 1.8853 -1.7115 0.5972 0 8
3.7091 1.9678 -1.7185 0.5947 0 8
3.6844 2.0506 -1.7258 0.5922 0 8
3.6586 2.1335 -1.7334 0.5896 0 8
3.6316 2.2167 -1.7413 0.5869 0 8
3.6034 2.3001 -1.7496 0.5841 0 8
3.5741 2.3837 -1.7583 0.5813 0 8
3.5436 2.4676 -1.7673 0.5783 0 8
3.5119 2.5517 -1.7767 0.5753 0 8
3.4789 2.6360 -1.7864 0.5721 0 8
3.4446 2.7207 -1.7965 0.5689 0 8
3.4091 2.8056 -1.8070 0.5656 0 8
3.3722 2.8908 -1.8179 0.5622 0 8
3.3341 2.9762 -1.8291 0.5588 0 8
3.2945 3.0620 -1.8408 0.5552 0 8
3.2536 3.1480 -1.8529 0.5516 0 8
3.2112 3.2344 -1.8654 0.5479 0 8
3.1674 3.3211 -1.8783 0.5441 0 8
3.1221 3.4081 -1.8917 0.5403 0 8
3.0754 3.4954 -1.9055 0.5364 0 8
3.0270 3.5831 -1.9197 0.5324 0 8
2.9771 3.6711 -1.9345 0.5283 0 8
2.9256 3.7594 -1.9496 0.5242 0 8
2.8725 3.8481 -1.9653 0.5200 0 8
2.8177 3.9372 -1.9815 0.5158 0 8
2.7611 4.0266 -1.9982 0.5115 0 8
2.7027 4.1164 -2.0154 0.5071 0 8
2.6426 4.2065 -2.0332 0.5027 0 8
2.5806 4.2971 -2.0515 0.4982 0 8
2.5167 4.3879 -2.0703 0.4937 0 8
2.4509 4.4792 -2.0897 0.4891 0 8
2.3830 4.5709 -2.1097 0.4844 0 8
2.3132 4.6629 -2.1303 0.4798 0 8
2.2411 4.7554 -2.1516 0.4750 0 8
2.1671 4.8482 -2.1735 0.4702 0 8
2.0907 4.9415 -2.1960 0.4654 0 8
2.0120 5.0351 -2.2192 0.4605 0 8
1.9312 5.1291 -2.2431 0.4556 0 8
1.8478 5.2236 -2.2677 0.4506 0 8
1.7620 5.3184 -2.2930 0.4456 0 8
1.6737 5.4136 -2.3191 0.4407 0 8
1.5827 5.5091 -2.3460 0.4357 0 8
1.4892 5.6050 -2.3736 0.4306 0 8
0.8521 3.4881 -1.4696 0.8804 0 5
1.2937 5.7979 -2.4313 0.4204 0 8
1.1916 5.8949 -2.4614 0.4152 0 8
1.0864 5.9922 -2.4925 0.4100 0 8
0.9783 6.0899 -2.5244 0.4049 0 8
0.8670 6.1878 -2.5573 0.3996 0 8
0.7523 6.2860 -2.5911 0.3944 0 8
0.6344 6.3845 -2.6259 0.3892 0 8
0.5130 6.4833 -2.6618 0.3840 0 8
0.3880 6.5823 -2.6986 0.3787 0 8
0.2593 6.6815 -2.7366 0.3734 0 8
0.1269 6.7808 -2.7757 0.3682 0 8
-0.0095 6.8803 -2.8160 0.3629 0 8
-0.1498 6.9799 -2.8574 0.3577 0 8
-0.2942 7.0796 -2.9000 0.3524 0 8
-0.4429 7.1793 -2.9439 0.3471 0 8
-0.5959 7.2790 -2.9891 0.3419 0 8
-0.7536 7.3787 -3.0356 0.3367 0 8
-0.9157 7.4782 -3.0835 0.3314 0 8
-1.0828 7.5775 -3.1328 0.3262 0 8
-1.2548 7.6767 -3.1836 0.3210 0 8
-1.4374 7.8061 -3.2486 0.3838 0 8
-1.6140 7.8739 -3.2896 0.3107 0 8
-1.8704 8.2765 -3.4728 0.3055 0 7
-2.0709 8.3776 -3.5320 0.3004 0 7
-2.2774 8.4781 -3.5929 0.2953 0 7
-2.4899 8.5778 -3.6556 0.2903 0 7
-2.7087 8.6767 -3.7202 0.2852 0 7
-2.9338 8.7746 -3.7866 0.2802 0 7
-3.1655 8.8713 -3.8550 0.2752 0 7
-3.4042 8.9668 -3.9255 0.2703 0 7
-3.6497 9.0608 -3.9979 0.2654 0 7
-3.9023 9.1533 -4.0725 0.2605 0 7
-4.1624 9.2441 -4.1492 0.2557 0 7
-4.4298 9.3329 -4.2282 0.2509 0 7
-4.7049 9.4196 -4.3094 0.2462 0 7
-4.9880 9.5040 -4.3929 0.2415 0 7
-5.2792 9.5858 -4.4789 0.2369 0 7
-5.5785 9.6648 -4.5672 0.2323 0 7
-5.8862 9.7408 -4.6580 0.2278 0 7
-6.2025 9.8134 -4.7514 0.2233 0 7
-6.5275 9.8824 -4.8473 0.2189 0 7
-6.8612 9.9475 -4.9458 0.2145 0 7
-7.2040 10.0084 -5.0470 0.2102 0 7
-7.5558 10.0646 -5.1508 0.2060 0 7
-7.9168 10.1159 -5.2574 0.2018 0 7
-8.2872 10.1618 -5.3667 0.1977 0 7
-8.6668 10.2020 -5.4787 0.1937 0 7
-9.0558 10.2360 -5.5935 0.1897 0 7
-9.4091 10.2145 -5.6838 0.6850 0 8
-9.4989 9.9052 -5.6168 0.1820 0 8
-9.9004 9.9175 -5.7353 0.1782 0 8
-10.3108 9.9219 -5.8565 0.1745 0 8
-10.7299 9.9180 -5.9802 0.1709 0 8
-11.1575 9.9052 -6.1063 0.1674 0 8
-11.5934 9.8831 -6.2350 0.1639 0 8
-12.0371 9.8510 -6.3660 0.1605 0 8
-12.2100 9.5896 -6.3543 0.3598 0 0
-12.3564 9.3097 -6.3319 0.3610 0 0
-12.4128 8.9672 -6.2672 0.7134 0 0
-12.4585 8.6248 -6.2016 0.7698 0 0
-12.5093 8.2935 -6.1428 0.7771 0 0
-12.5574 7.9671 -6.0866 0.7843 0 0
-12.6029 7.6454 -6.0330 0.7913 0 0
-12.6457 7.3281 -5.9818 0.7981 0 0
-12.6696 7.0060 -5.9254 0.7605 0 0
-12.6857 6.6858 -5.8689 0.8329 0 0
-12.7171 6.3794 -5.8230 0.8394 0 0
-12.7465 6.0769 -5.7794 0.8458 0 0
-12.7737 5.7781 -5.7380 0.8519 0 0
-12.7991 5.4827 -5.6988 0.8577 0 0
-12.8177 5.1886 -5.6595 0.8209 0 0
-12.7935 4.8821 -5.6044 0.8290 0 0
-12.8090 4.5956 -5.5696 0.9047 0 0
-12.8321 4.3150 -5.5409 0.9094 0 0
-12.8536 4.0369 -5.5140 0.9139 0 0
-12.8734 3.7608 -5.4890 0.9180 0 0
-12.8916 3.4868 -5.4658 0.9219 0 0
-12.9063 3.2141 -5.4436 0.9212 0 0
-12.9125 2.9416 -5.4201 0.9252 0 0
-12.9120 2.6699 -5.3964 0.9182 0 0
-12.9038 2.3991 -5.3717 0.9224 0 0
-12.8943 2.1304 -5.3489 0.9264 0 0
-12.8835 1.8637 -5.3278 0.9300 0 0
-12.8714 1.5988 -5.3084 0.9334 0 0
-12.8581 1.3356 -5.2908 0.9365 0 0
-12.8659 1.0757 -5.2841 0.9310 0 0
-12.8899 0.8175 -5.2862 0.9306 0 0
-12.8880 0.5578 -5.2797 0.9256 0 0
-12.8771 0.2985 -5.2717 0.9269 0 0
-12.8651 0.0398 -5.2654 0.9281 0 0
-12.8515 -0.2183 -5.2606 0.9289 0 0
-12.8365 -0.4761 -5.2573 0.9295 0 0
-12.8201 -0.7335 -5.2555 0.9298 0 0
-12.8146 -0.9917 -5.2604 0.9162 0 0
-12.8106 -1.2506 -5.2680 0.9149 0 0
-12.8030 -1.5099 -5.2762 0.9143 0 0
-12.7934 -1.7700 -5.2859 0.9126 0 0
-12.7823 -2.0308 -5.2971 0.9107 0 0
-12.7697 -2.2925 -5.3099 0.9085 0 0
-12.7554 -2.5554 -5.3242 0.9061 0 0
-12.4703 -3.2605 -5.6175 0.8943 0 0
-12.4470 -3.5229 -5.6377 0.9010 0 0
-12.4205 -3.7864 -5.6590 0.8976 0 0
-12.3920 -4.0514 -5.6820 0.8940 0 0
-12.3617 -4.3181 -5.7067 0.8901 0 0
-12.3295 -4.5867 -5.7332 0.8860 0 0
-12.2954 -4.8572 -5.7615 0.8817 0 0
-12.2639 -5.1318 -5.7939 0.8366 0 0
-12.2372 -5.4119 -5.8315 0.8632 0 0
-9.9590 -4.6457 -4.7893 0.6821 0 5
-12.1453 -5.9652 -5.8971 0.8536 0 0
-12.0958 -6.2455 -5.9328 0.8485 0 0
-12.0441 -6.5284 -5.9705 0.8431 0 0
-11.9898 -6.8140 -6.0103 0.8375 0 0
-11.9331 -7.1025 -6.0521 0.8317 0 0
-11.8705 -7.3920 -6.0944 0.8457 0 0
-11.8027 -7.6829 -6.1376 0.8397 0 0
-11.6675 -7.9329 -6.1489 0.4944 0 0
-11.5120 -8.1699 -6.1522 0.4942 0 0
-11.3525 -8.4046 -6.1559 0.4939 0 0
-11.0151 -8.5024 -6.0643 0.1778 0 8
-10.6489 -8.5664 -5.9563 0.1810 0 8
-10.2868 -8.6210 -5.8494 0.1843 0 8
-9.9291 -8.6665 -5.7438 0.1877 0 8
-9.5763 -8.7034 -5.6397 0.1911 0 8
-9.2284 -8.7321 -5.5370 0.1947 0 8
-8.8861 -8.7529 -5.4360 0.1983 0 8
-8.7676 -8.9902 -5.4728 0.7497 0 8
-8.5324 -9.1078 -5.4390 0.2058 0 7
-8.1948 -9.1074 -5.3394 0.2096 0 7
-7.8637 -9.1004 -5.2417 0.2135 0 7
-7.5389 -9.0872 -5.1458 0.2175 0 7
-7.2206 -9.0681 -5.0519 0.2215 0 7
-6.9090 -9.0436 -4.9599 0.2256 0 7
-6.6039 -9.0138 -4.8699 0.2298 0 7
-6.3054 -8.9791 -4.7817 0.2340 0 7
-6.0134 -8.9399 -4.6956 0.2383 0 7
-5.7281 -8.8964 -4.6114 0.2427 0 7
-5.4493 -8.8488 -4.5291 0.2471 0 7
-5.1770 -8.7975 -4.4487 0.2516 0 7
-4.9111 -8.7427 -4.3702 0.2561 0 7
-4.6516 -8.6846 -4.2936 0.2607 0 7
-4.3984 -8.6235 -4.2189 0.2653 0 7
-4.1513 -8.5595 -4.1460 0.2699 0 7
-3.9104 -8.4929 -4.0749 0.2747 0 7
-3.6754 -8.4239 -4.0055 0.2794 0 7
-3.4463 -8.3526 -3.9379 0.2842 0 7
-3.2230 -8.2792 -3.8720 0.2890 0 7
-3.0055 -8.2039 -3.8078 0.2939 0 7
-2.7934 -8.1268 -3.7452 0.2988 0 7
-2.5869 -8.0481 -3.6842 0.3038 0 7
-2.3857 -7.9679 -3.6249 0.3087 0 7
-2.1897 -7.8863 -3.5670 0.3138 0 7
-1.9988 -7.8035 -3.5107 0.3188 0 7
-1.8130 -7.7195 -3.4558 0.3239 0 7
-1.6320 -7.6345 -3.4024 0.3289 0 7
-1.4558 -7.5485 -3.3504 0.3340 0 7
-1.2841 -7.4617 -3.2997 0.3392 0 7
-1.1171 -7.3741 -3.2504 0.3443 0 7
-0.9546 -7.2859 -3.2025 0.3495 0 7
-0.7962 -7.1970 -3.1557 0.3546 0 7
-0.6422 -7.1077 -3.1103 0.3598 0 7
-0.4922 -7.0178 -3.0660 0.3650 0 7
-0.3462 -6.9276 -3.0229 0.3702 0 7
-0.2043 -6.8370 -2.9810 0.3754 0 7
-0.0660 -6.7461 -2.9402 0.3806 0 7
0.0685 -6.6549 -2.9005 0.3859 0 7
0.1995 -6.5636 -2.8618 0.3911 0 7
0.3268 -6.4721 -2.8242 0.3963 0 7
0.4508 -6.3805 -2.7876 0.4015 0 7
0.5715 -6.2888 -2.7521 0.4067 0 7
0.6889 -6.1970 -2.7174 0.4119 0 7
0.8030 -6.1053 -2.6837 0.4170 0 7
0.9142 -6.0135 -2.6509 0.4222 0 7
1.0223 -5.9218 -2.6190 0.4273 0 7
1.1275 -5.8301 -2.5879 0.4325 0 7
1.2298 -5.7386 -2.5577 0.4376 0 7
1.3293 -5.6471 -2.5284 0.4426 0 7
1.4261 -5.5558 -2.4998 0.4477 0 7
1.5204 -5.4645 -2.4720 0.4527 0 7
1.6119 -5.3735 -2.4450 0.4577 0 7
1.7010 -5.2826 -2.4187 0.4627 0 7
1.7877 -5.1919 -2.3931 0.4677 0 7
1.8719 -5.1014 -2.3682 0.4726 0 7
1.9538 -5.0111 -2.3441 0.4774 0 7
2.0334 -4.9211 -2.3206 0.4823 0 7
2.1108 -4.8312 -2.2977 0.4871 0 7
2.1861 -4.7415 -2.2755 0.4918 0 7
2.2593 -4.6521 -2.2539 0.4965 0 7
2.3302 -4.5630 -2.2329 0.5012 0 7
2.3993 -4.4740 -2.2126 0.5058 0 7
2.4664 -4.3854 -2.1928 0.5104 0 7
2.5316 -4.2969 -2.1735 0.5149 0 7
2.5948 -4.2088 -2.1549 0.5194 0 7
2.6563 -4.1208 -2.1367 0.5238 0 7
2.7160 -4.0332 -2.1191 0.5281 0 7
2.7738 -3.9457 -2.1020 0.5324 0 7
2.8300 -3.8586 -2.0854 0.5367 0 7
2.8845 -3.7717 -2.0694 0.5408 0 7
2.9373 -3.6850 -2.0538 0.5449 0 7
2.9886 -3.5986 -2.0386 0.5490 0 7
3.0382 -3.5124 -2.0240 0.5530 0 7
3.0864 -3.4265 -2.0098 0.5569 0 7
3.1329 -3.3408 -1.9960 0.5607 0 7
3.1780 -3.2554 -1.9827 0.5645 0 7
3.2217 -3.1701 -1.9698 0.5682 0 7
3.2639 -3.0852 -1.9574 0.5718 0 7
3.3048 -3.0004 -1.9453 0.5753 0 7
3.3442 -2.9159 -1.9337 0.5788 0 7
3.3823 -2.8316 -1.9224 0.5822 0 7
3.4191 -2.7475 -1.9116 0.5855 0 7
3.4546 -2.6636 -1.9011 0.5887 0 7
3.4887 -2.5800 -1.8910 0.5918 0 7
3.5216 -2.4965 -1.8813 0.5949 0 7
3.5533 -2.4132 -1.8720 0.5979 0 7
3.5838 -2.3302 -1.8630 0.6007 0 7
3.6130 -2.2473 -1.8544 0.6035 0 7
3.6411 -2.1646 -1.8461 0.6062 0 7
3.6679 -2.0820 -1.8381 0.6089 0 7
3.6937 -1.9997 -1.8305 0.6114 0 7
3.7183 -1.9175 -1.8233 0.6138 0 7
3.7418 -1.8354 -1.8163 0.6162 0 7
3.7641 -1.7535 -1.8097 0.6184 0 7
3.7854 -1.6717 -1.8035 0.6206 0 7
3.8056 -1.5901 -1.7975 0.6226 0 7
3.8247 -1.5086 -1.7919 0.6246 0 7
3.8428 -1.4273 -1.7865 0.6264 0 7
3.8598 -1.3460 -1.7815 0.6282 0 7
3.8757 -1.2649 -1.7768 0.6299 0 7
3.8907 -1.1839 -1.7724 0.6314 0 7
3.9046 -1.1029 -1.7683 0.6329 0 7
3.9175 -1.0221 -1.7645 0.6343 0 7
3.9294 -0.9414 -1.7610 0.6355 0 7
3.9403 -0.8607 -1.7577 0.6367 0 7
3.9502 -0.7801 -1.7548 0.6378 0 7
3.9591 -0.6996 -1.7522 0.6387 0 7
3.9670 -0.6191 -1.7498 0.6396 0 7
3.9741 -0.5387 -1.7478 0.6403 0 7
3.9800 -0.4583 -1.7460 0.6410 0 7
3.9850 -0.3780 -1.7445 0.6415 0 7
3.9891 -0.2977 -1.7433 0.6420 0 7
3.9921 -0.2174 -1.7424 0.6423 0 7
3.9943 -0.1372 -1.7418 0.6425 0 7
3.9955 -0.0569 -1.7415 0.6427 0 7
3.9957 0.0233 -1.7414 0.6427 0 7
3.9949 0.1035 -1.7416 0.6426 0 7
3.9932 0.1838 -1.7421 0.6424 0 7
3.9905 0.2641 -1.7429 0.6421 0 7
3.9868 0.3444 -1.7440 0.6417 0 7
3.9822 0.4247 -1.7454 0.6412 0 7
3.9766 0.5050 -1.7470 0.6406 0 7
3.9701 0.5854 -1.7489 0.6399 0 7
3.9625 0.6659 -1.7512 0.6391 0 7
3.9541 0.7464 -1.7537 0.6382 0 7
3.9446 0.8269 -1.7565 0.6372 0 7
3.9341 0.9076 -1.7596 0.6360 0 7
3.9226 0.9883 -1.7630 0.6348 0 7
3.9102 1.0691 -1.7667 0.6335 0 7
3.8966 1.1500 -1.7706 0.6321 0 7
3.8443 1.2189 -1.7576 0.3690 0 8
3.7243 1.2637 -1.7140 0.6289 0 8
3.7083 1.3419 -1.7187 0.6272 0 8
3.7261 1.4336 -1.7400 0.5026 0 8
3.6734 1.4987 -1.7290 0.6235 0 8
3.6543 1.5773 -1.7347 0.6215 0 8
3.6343 1.6559 -1.7406 0.6193 0 8
3.6132 1.7348 -1.7468 0.6171 0 8
3.5910 1.8137 -1.7533 0.6148 0 8
3.5678 1.8928 -1.7602 0.6124 0 8
3.5434 1.9721 -1.7674 0.6100 0 8
3.5180 2.0516 -1.7749 0.6074 0 8
3.4914 2.1311 -1.7827 0.6047 0 8
3.4637 2.2109 -1.7909 0.6019 0 8
3.4349 2.2908 -1.7994 0.5991 0 8
3.4049 2.3710 -1.8083 0.5962 0 8
3.3737 2.4513 -1.8175 0.5931 0 8
3.3413 2.5318 -1.8270 0.5900 0 8
3.3076 2.6125 -1.8369 0.5869 0 8
3.2728 2.6934 -1.8472 0.5836 0 8
3.2366 2.7745 -1.8579 0.5802 0 8
3.1992 2.8558 -1.8689 0.5768 0 8
3.1604 2.9373 -1.8804 0.5733 0 8
3.1203 3.0191 -1.8922 0.5697 0 8
3.0788 3.1010 -1.9045 0.5660 0 8
3.0359 3.1833 -1.9171 0.5623 0 8
2.9917 3.2657 -1.9302 0.5585 0 8
2.9459 3.3483 -1.9437 0.5546 0 8
2.8987 3.4312 -1.9576 0.5507 0 8
2.8500 3.5144 -1.9720 0.5467 0 8
2.7998 3.5977 -1.9868 0.5426 0 8
2.7479 3.6813 -2.0021 0.5384 0 8
2.6945 3.7652 -2.0179 0.5342 0 8
2.6395 3.8493 -2.0341 0.5300 0 8
2.5828 3.9336 -2.0508 0.5256 0 8
2.5242 4.0182 -2.0681 0.5213 0 8
2.4641 4.1030 -2.0858 0.5168 0 8
2.4020 4.1881 -2.1042 0.5123 0 8
2.3382 4.2734 -2.1230 0.5078 0 8
2.2725 4.3589 -2.1424 0.5032 0 8
2.2048 4.4447 -2.1623 0.4986 0 8
2.1352 4.5307 -2.1829 0.4939 0 8
2.0637 4.6169 -2.2040 0.4891 0 8
1.9900 4.7034 -2.2257 0.4843 0 8
1.9142 4.7900 -2.2481 0.4795 0 8
1.8362 4.8769 -2.2711 0.4746 0 8
1.7560 4.9640 -2.2948 0.4697 0 8
1.6736 5.0513 -2.3191 0.4647 0 8
1.5888 5.1388 -2.3442 0.4598 0 8
1.5016 5.2265 -2.3699 0.4548 0 8
0.9298 3.4994 -1.5780 0.7614 0 5
0.8544 3.4973 -1.5690 0.8698 0 5
1.2250 5.4902 -2.4516 0.4397 0 8
1.1275 5.5784 -2.4803 0.4346 0 8
1.0274 5.6667 -2.5099 0.4295 0 8
0.9245 5.7550 -2.5403 0.4244 0 8
0.8187 5.8433 -2.5715 0.4192 0 8
0.7099 5.9317 -2.6036 0.4140 0 8
0.5982 6.0201 -2.6366 0.4089 0 8
0.4833 6.1085 -2.6705 0.4037 0 8
0.3652 6.1968 -2.7054 0.3985 0 8
0.2439 6.2850 -2.7412 0.3933 0 8
0.1193 6.3730 -2.7780 0.3880 0 8
-0.0089 6.4609 -2.8158 0.3828 0 8
-0.1405 6.5486 -2.8546 0.3776 0 8
-0.2758 6.6360 -2.8946 0.3724 0 8
-0.4148 6.7231 -2.9356 0.3672 0 8
-0.5575 6.8098 -2.9778 0.3620 0 8
-0.7043 6.8961 -3.0211 0.3568 0 8
-0.8550 6.9819 -3.0656 0.3516 0 8
-1.0098 7.0672 -3.1113 0.3465 0 8
-1.1689 7.1518 -3.1582 0.3413 0 8
-1.3324 7.2357 -3.2065 0.3362 0 8
-1.5002 7.3189 -3.2560 0.3311 0 8
-1.7365 7.6840 -3.4333 0.3260 0 7
-1.9204 7.7684 -3.4875 0.3209 0 7
-2.1091 7.8517 -3.5432 0.3159 0 7
-2.3030 7.9339 -3.6004 0.3108 0 7
-2.5020 8.0146 -3.6592 0.3059 0 7
-2.7063 8.0940 -3.7195 0.3009 0 7
-2.9160 8.1718 -3.7814 0.2960 0 7
-3.1312 8.2479 -3.8449 0.2911 0 7
-3.3520 8.3221 -3.9101 0.2862 0 7
-3.5787 8.3943 -3.9770 0.2814 0 7
-3.8111 8.4643 -4.0456 0.2766 0 7
-4.0495 8.5319 -4.1159 0.2719 0 7
-4.2941 8.5970 -4.1881 0.2672 0 7
-4.5447 8.6594 -4.2621 0.2626 0 7
-4.8017 8.7188 -4.3379 0.2580 0 7
-5.0648 8.7750 -4.4156 0.2535 0 7
-5.3345 8.8278 -4.4952 0.2490 0 7
-5.6105 8.8769 -4.5767 0.2445 0 7
-5.8931 8.9222 -4.6601 0.2402 0 7
-6.1823 8.9632 -4.7454 0.2358 0 7
-6.4780 8.9998 -4.8327 0.2316 0 7
-6.7803 9.0317 -4.9219 0.2274 0 7
-7.0893 9.0585 -5.0131 0.2232 0 7
-7.4049 9.0799 -5.1062 0.2192 0 7
-7.7268 9.0956 -5.2013 0.2152 0 7
-8.0554 9.1052 -5.2982 0.2112 0 7
-8.3901 9.1084 -5.3971 0.2074 0 7
-8.7312 9.1048 -5.4977 0.2036 0 7
-9.0784 9.0941 -5.6002 0.1998 0 7
-9.3711 9.0176 -5.6679 0.7245 0 8
-9.4300 8.7164 -5.5965 0.1926 0 8
-9.7807 8.6830 -5.7000 0.1891 0 8
-10.1363 8.6411 -5.8050 0.1857 0 8
-10.4968 8.5904 -5.9113 0.1824 0 8
-10.8612 8.5304 -6.0189 0.1791 0 8
-11.2295 8.4606 -6.1276 0.1759 0 8
-11.6012 8.3809 -6.2373 0.1728 0 8
-11.8870 8.2291 -6.3008 0.4005 0 0
-12.0399 7.9822 -6.2957 0.4008 0 0
-12.1877 7.7326 -6.2905 0.4011 0 0
-12.3160 7.4713 -6.2779 0.8021 0 0
-12.3602 7.1626 -6.2259 0.8088 0 0
-12.3922 6.8525 -6.1714 0.8354 0 0
-12.4272 6.5496 -6.1222 0.8421 0 0
-12.4600 6.2505 -6.0753 0.8486 0 0
-12.4907 5.9550 -6.0307 0.8549 0 0
-12.5193 5.6630 -5.9883 0.8610 0 0
-12.5458 5.3742 -5.9482 0.8668 0 0
-12.5704 5.0885 -5.9102 0.8723 0 0
-12.5597 4.7929 -5.8588 0.9072 0 0
-12.5852 4.5153 -5.8272 0.9121 0 0
-12.6090 4.2400 -5.7976 0.9168 0 0
-12.6311 3.9670 -5.7700 0.9211 0 0
-12.6517 3.6960 -5.7443 0.9253 0 0
-12.6705 3.4270 -5.7204 0.9291 0 0
-12.6878 3.1597 -5.6985 0.9327 0 0
-12.6951 2.8921 -5.6745 0.9321 0 0
-12.6935 2.6247 -5.6491 0.9252 0 0
-12.6863 2.3587 -5.6237 0.9293 0 0
-12.6780 2.0947 -5.6002 0.9332 0 0
-12.6682 1.8325 -5.5785 0.9369 0 0
-12.6570 1.5722 -5.5586 0.9402 0 0
-12.6447 1.3134 -5.5404 0.9433 0 0
-12.6356 1.0565 -5.5261 0.9390 0 0
-12.6592 0.8029 -5.5282 0.9386 0 0
-12.6553 0.5477 -5.5206 0.9336 0 0
-12.6451 0.2931 -5.5124 0.9350 0 0
-12.6335 0.0391 -5.5059 0.9361 0 0
-12.6204 -0.2144 -5.5010 0.9370 0 0
-12.6057 -0.4675 -5.4976 0.9375 0 0
-12.5897 -0.7203 -5.4958 0.9379 0 0
-12.5743 -0.9731 -5.4965 0.9249 0 0
-12.5700 -1.2271 -5.5043 0.9236 0 0
-12.5622 -1.4815 -5.5128 0.9230 0 0
-12.5524 -1.7366 -5.5227 0.9214 0 0
-12.5410 -1.9924 -5.5342 0.9194 0 0
-12.5281 -2.2492 -5.5473 0.9173 0 0
-12.5135 -2.5069 -5.5620 0.9149 0 0
-12.2254 -3.1965 -5.8492 0.9030 0 0
-12.2040 -3.4541 -5.8710 0.9097 0 0
-12.1770 -3.7122 -5.8927 0.9064 0 0
-12.1482 -3.9717 -5.9161 0.9028 0 0
-12.1175 -4.2328 -5.9414 0.8989 0 0
-12.0848 -4.4956 -5.9684 0.8949 0 0
-12.0502 -4.7603 -5.9973 0.8905 0 0
-12.0135 -5.0270 -6.0281 0.8860 0 0
-11.9781 -5.2973 -6.0625 0.8407 0 0
-9.8020 -4.5724 -5.0066 0.9270 0 5
-9.7807 -4.8039 -5.0439 0.9202 0 5
-11.8257 -6.1061 -6.1606 0.4694 0 0
-11.7153 -6.3501 -6.1682 0.4688 0 0
-11.6001 -6.5925 -6.1761 0.4682 0 0
-11.4806 -6.8331 -6.1842 0.4676 0 0
-11.2463 -7.0032 -6.1326 0.1848 0 8
-10.9393 -7.1209 -6.0420 0.1876 0 8
-10.6322 -7.2290 -5.9513 0.1904 0 8
-10.3253 -7.3278 -5.8607 0.1934 0 8
-10.0193 -7.4175 -5.7704 0.1964 0 8
-9.7144 -7.4985 -5.6805 0.1995 0 8
-9.4113 -7.5709 -5.5910 0.2027 0 8
-9.1103 -7.6350 -5.5021 0.2060 0 8
-8.8360 -7.7124 -5.4289 0.7804 0 8
-8.7957 -7.9941 -5.5017 0.7841 0 8
-8.5375 -8.0782 -5.4405 0.2163 0 7
-8.2370 -8.1136 -5.3519 0.2199 0 7
-7.9404 -8.1420 -5.2643 0.2235 0 7
-7.6478 -8.1636 -5.1780 0.2273 0 7
-7.3592 -8.1787 -5.0928 0.2311 0 7
-7.0750 -8.1878 -5.0089 0.2349 0 7
-6.7953 -8.1909 -4.9264 0.2389 0 7
-6.5202 -8.1885 -4.8452 0.2429 0 7
-6.2498 -8.1807 -4.7653 0.2469 0 7
-5.9842 -8.1679 -4.6870 0.2511 0 7
-5.7233 -8.1504 -4.6100 0.2553 0 7
-5.4676 -8.1283 -4.5345 0.2595 0 7
-5.2166 -8.1019 -4.4604 0.2638 0 7
-4.9707 -8.0715 -4.3878 0.2682 0 7
-4.7296 -8.0372 -4.3167 0.2726 0 7
-4.4935 -7.9993 -4.2470 0.2771 0 7
-4.2625 -7.9580 -4.1788 0.2816 0 7
-4.0362 -7.9136 -4.1120 0.2862 0 7
-3.8150 -7.8660 -4.0467 0.2908 0 7
-3.5985 -7.8157 -3.9828 0.2954 0 7
-3.3869 -7.7627 -3.9204 0.3002 0 7
-3.1801 -7.7072 -3.8593 0.3049 0 7
-2.9779 -7.6494 -3.7996 0.3097 0 7
-2.7804 -7.5894 -3.7413 0.3145 0 7
-2.5874 -7.5273 -3.6844 0.3194 0 7
-2.3989 -7.4634 -3.6288 0.3243 0 7
-2.2150 -7.3977 -3.5745 0.3292 0 7
-2.0353 -7.3303 -3.5214 0.3342 0 7
-1.8600 -7.2614 -3.4697 0.3391 0 7
-1.6888 -7.1910 -3.4192 0.3441 0 7
-1.5218 -7.1194 -3.3699 0.3492 0 7
-1.3589 -7.0465 -3.3218 0.3542 0 7
-1.1999 -6.9724 -3.2749 0.3593 0 7
-1.0449 -6.8974 -3.2291 0.3644 0 7
-0.8937 -6.8214 -3.1845 0.3695 0 7
-0.7462 -6.7445 -3.1410 0.3746 0 7
-0.6023 -6.6667 -3.0985 0.3798 0 7
-0.4621 -6.5883 -3.0571 0.3849 0 7
-0.3254 -6.5091 -3.0168 0.3901 0 7
-0.1921 -6.4294 -2.9774 0.3952 0 7
-0.0621 -6.3491 -2.9391 0.4004 0 7
0.0645 -6.2683 -2.9017 0.4055 0 7
0.1880 -6.1871 -2.8652 0.4107 0 7
0.3084 -6.1054 -2.8297 0.4158 0 7
0.4256 -6.0234 -2.7951 0.4210 0 7
0.5399 -5.9411 -2.7614 0.4261 0 7
0.6513 -5.8585 -2.7285 0.4313 0 7
0.7597 -5.7756 -2.6965 0.4364 0 7
0.8654 -5.6926 -2.6653 0.4415 0 7
0.9684 -5.6094 -2.6349 0.4466 0 7
1.0687 -5.5260 -2.6053 0.4517 0 7
1.1664 -5.4425 -2.5765 0.4567 0 7
1.2615 -5.3590 -2.5484 0.4617 0 7
1.3541 -5.2753 -2.5210 0.4668 0 7
1.4444 -5.1916 -2.4944 0.4717 0 7
1.5323 -5.1079 -2.4685 0.4767 0 7
1.6178 -5.0242 -2.4432 0.4816 0 7
1.7011 -4.9405 -2.4186 0.4865 0 7
1.7821 -4.8568 -2.3947 0.4914 0 7
1.8610 -4.7732 -2.3714 0.4962 0 7
1.9378 -4.6896 -2.3488 0.5010 0 7
2.0125 -4.6061 -2.3267 0.5057 0 7
2.0852 -4.5227 -2.3053 0.5104 0 7
2.1559 -4.4394 -2.2844 0.5151 0 7
2.2246 -4.3561 -2.2641 0.5197 0 7
2.2915 -4.2730 -2.2444 0.5243 0 7
2.3566 -4.1900 -2.2252 0.5288 0 7
2.4197 -4.1071 -2.2065 0.5333 0 7
2.4811 -4.0244 -2.1884 0.5377 0 7
2.5409 -3.9417 -2.1708 0.5421 0 7
2.5988 -3.8593 -2.1537 0.5464 0 7
2.6552 -3.7769 -2.1370 0.5506 0 7
2.7098 -3.6947 -2.1209 0.5548 0 7
2.7630 -3.6127 -2.1052 0.5589 0 7
2.8144 -3.5308 -2.0900 0.5630 0 7
2.8644 -3.4490 -2.0753 0.5670 0 7
2.9129 -3.3675 -2.0610 0.5709 0 7
2.9598 -3.2860 -2.0471 0.5748 0 7
3.0054 -3.2048 -2.0337 0.5786 0 7
3.0495 -3.1237 -2.0207 0.5823 0 7
3.0922 -3.0427 -2.0081 0.5860 0 7
3.1335 -2.9619 -1.9959 0.5896 0 7
3.1735 -2.8812 -1.9841 0.5931 0 7
3.2121 -2.8008 -1.9727 0.5965 0 7
3.2495 -2.7204 -1.9616 0.5999 0 7
3.2855 -2.6402 -1.9510 0.6031 0 7
3.3204 -2.5602 -1.9407 0.6063 0 7
3.3538 -2.4802 -1.9308 0.6094 0 7
3.3862 -2.4005 -1.9213 0.6125 0 7
3.4172 -2.3209 -1.9121 0.6154 0 7
3.4472 -2.2414 -1.9033 0.6183 0 7
3.4759 -2.1620 -1.8948 0.6210 0 7
3.5036 -2.0828 -1.8867 0.6237 0 7
3.5300 -2.0037 -1.8789 0.6263 0 7
3.5553 -1.9247 -1.8714 0.6288 0 7
3.5795 -1.8459 -1.8642 0.6312 0 7
3.6026 -1.7671 -1.8574 0.6335 0 7
3.6246 -1.6885 -1.8509 0.6357 0 7
3.6456 -1.6100 -1.8447 0.6379 0 7
3.6655 -1.5316 -1.8389 0.6399 0 7
3.6843 -1.4533 -1.8333 0.6419 0 7
3.7021 -1.3750 -1.8280 0.6437 0 7
3.7189 -1.2969 -1.8231 0.6454 0 7
3.7346 -1.2188 -1.8184 0.6471 0 7
3.7494 -1.1409 -1.8141 0.6486 0 7
3.7631 -1.0630 -1.8100 0.6501 0 7
3.7758 -0.9852 -1.8063 0.6515 0 7
3.7875 -0.9074 -1.8028 0.6527 0 7
3.7984 -0.8297 -1.7996 0.6539 0 7
3.8081 -0.7521 -1.7968 0.6549 0 7
3.8169 -0.6745 -1.7942 0.6559 0 7
3.8248 -0.5969 -1.7918 0.6567 0 7
3.8316 -0.5194 -1.7898 0.6574 0 7
3.8375 -0.4419 -1.7881 0.6581 0 7
3.8425 -0.3645 -1.7866 0.6586 0 7
3.8465 -0.2871 -1.7854 0.6591 0 7
3.8495 -0.2097 -1.7845 0.6594 0 7
3.8516 -0.1323 -1.7839 0.6596 0 7
3.8528 -0.0549 -1.7836 0.6597 0 7
3.8529 0.0225 -1.7835 0.6598 0 7
3.8522 0.0998 -1.7837 0.6597 0 7
3.8505 0.1772 -1.7842 0.6595 0 7
3.8479 0.2546 -1.7850 0.6592 0 7
3.8443 0.3320 -1.7861 0.6588 0 7
3.8397 0.4095 -1.7874 0.6583 0 7
3.8342 0.4869 -1.7891 0.6577 0 7
3.8277 0.5644 -1.7910 0.6570 0 7
3.8204 0.6420 -1.7931 0.6562 0 7
3.8119 0.7195 -1.7956 0.6553 0 7
3.8025 0.7972 -1.7984 0.6543 0 7
3.7922 0.8748 -1.8015 0.6532 0 7
3.7808 0.9526 -1.8048 0.6520 0 7
3.7685 1.0304 -1.8084 0.6507 0 7
3.7552 1.1082 -1.8124 0.6493 0 7
3.7409 1.1862 -1.8166 0.6478 0 7
3.6546 1.2401 -1.7864 0.6498 0 8
3.5728 1.2929 -1.7587 0.6444 0 8
3.5560 1.3682 -1.7637 0.6426 0 8
3.5628 1.4536 -1.7811 0.5145 0 8
3.5196 1.5191 -1.7744 0.6388 0 8
3.4998 1.5947 -1.7803 0.6367 0 8
3.4790 1.6704 -1.7864 0.6345 0 8
3.4572 1.7462 -1.7928 0.6322 0 8
3.4343 1.8221 -1.7996 0.6298 0 8
3.4104 1.8981 -1.8066 0.6274 0 8
3.3854 1.9742 -1.8140 0.6248 0 8
3.3592 2.0504 -1.8217 0.6222 0 8
3.3320 2.1268 -1.8298 0.6194 0 8
3.3037 2.2033 -1.8381 0.6166 0 8
3.2742 2.2800 -1.8468 0.6137 0 8
3.2436 2.3567 -1.8559 0.6107 0 8
3.2117 2.4336 -1.8653 0.6077 0 8
3.1788 2.5107 -1.8750 0.6045 0 8
3.1445 2.5878 -1.8851 0.6013 0 8
3.1090 2.6652 -1.8955 0.5980 0 8
3.0723 2.7426 -1.9064 0.5946 0 8
3.0344 2.8203 -1.9176 0.5911 0 8
2.9952 2.8980 -1.9292 0.5875 0 8
2.9546 2.9759 -1.9411 0.5839 0 8
2.9127 3.0540 -1.9535 0.5802 0 8
2.8694 3.1322 -1.9663 0.5764 0 8
2.8247 3.2106 -1.9795 0.5726 0 8
2.7787 3.2891 -1.9930 0.5687 0 8
2.7311 3.3677 -2.0071 0.5647 0 8
2.6821 3.4466 -2.0215 0.5607 0 8
2.6316 3.5255 -2.0364 0.5566 0 8
2.5796 3.6046 -2.0518 0.5524 0 8
2.5261 3.6839 -2.0676 0.5482 0 8
2.4709 3.7632 -2.0839 0.5439 0 8
2.4141 3.8428 -2.1006 0.5396 0 8
2.3556 3.9224 -2.1179 0.5352 0 8
2.2954 4.0022 -2.1356 0.5307 0 8
2.2335 4.0821 -2.1539 0.5262 0 8
2.1699 4.1621 -2.1727 0.5217 0 8
2.1044 4.2422 -2.1920 0.5171 0 8
2.0371 4.3224 -2.2118 0.5124 0 8
1.9679 4.4027 -2.2323 0.5078 0 8
1.8967 4.4831 -2.2532 0.5030 0 8
1.8237 4.5635 -2.2748 0.4982 0 8
1.7485 4.6441 -2.2970 0.4934 0 8
1.6713 4.7246 -2.3198 0.4885 0 8
1.5920 4.8053 -2.3432 0.4836 0 8
1.5105 4.8859 -2.3672 0.4787 0 8
1.4269 4.9666 -2.3920 0.4738 0 8
0.9261 3.4856 -1.6694 0.7568 0 5
0.8622 3.5293 -1.6817 0.4478 0 5
1.1621 5.2083 -2.4701 0.4588 0 8
1.0690 5.2888 -2.4976 0.4538 0 8
0.9735 5.3691 -2.5258 0.4487 0 8
0.8754 5.4494 -2.5548 0.4437 0 8
0.7747 5.5294 -2.5845 0.4385 0 8
0.6713 5.6093 -2.6150 0.4334 0 8
0.5652 5.6890 -2.6463 0.4283 0 8
0.4564 5.7684 -2.6784 0.4232 0 8
0.3447 5.8475 -2.7114 0.4180 0 8
0.2300 5.9263 -2.7453 0.4129 0 8
0.1124 6.0048 -2.7800 0.4077 0 8
-0.0084 6.0828 -2.8156 0.4025 0 8
-0.1322 6.1603 -2.8522 0.3974 0 8
-0.2593 6.2374 -2.8897 0.3922 0 8
-0.3896 6.3139 -2.9282 0.3871 0 8
-0.5232 6.3897 -2.9676 0.3819 0 8
-0.6602 6.4649 -3.0081 0.3768 0 8
-0.8008 6.5393 -3.0496 0.3717 0 8
-0.9449 6.6129 -3.0921 0.3665 0 8
-1.0927 6.6856 -3.1358 0.3614 0 8
-1.2443 6.7574 -3.1805 0.3564 0 8
-1.3996 6.8281 -3.2263 0.3513 0 8
-1.5588 6.8976 -3.2733 0.3463 0 8
-1.7877 7.2321 -3.4484 0.3412 0 7
-1.9613 7.3016 -3.4996 0.3362 0 7
-2.1391 7.3696 -3.5521 0.3313 0 7
-2.3213 7.4360 -3.6059 0.3263 0 7
-2.5080 7.5008 -3.6609 0.3214 0 7
-2.6989 7.5636 -3.7173 0.3165 0 7
-2.8945 7.6245 -3.7750 0.3117 0 7
-3.0948 7.6833 -3.8342 0.3069 0 7
-3.2996 7.7397 -3.8946 0.3021 0 7
-3.5093 7.7938 -3.9565 0.2974 0 7
-3.7237 7.8453 -4.0198 0.2927 0 7
-3.9429 7.8940 -4.0845 0.2881 0 7
-4.1671 7.9398 -4.1506 0.2835 0 7
-4.3961 7.9824 -4.2182 0.2790 0 7
-4.6302 8.0217 -4.2873 0.2745 0 7
-4.8691 8.0575 -4.3578 0.2700 0 7
-5.1129 8.0896 -4.4298 0.2656 0 7
-5.3618 8.1177 -4.5033 0.2613 0 7
-5.6157 8.1417 -4.5782 0.2570 0 7
-5.8743 8.1611 -4.6545 0.2528 0 7
-6.1379 8.1759 -4.7323 0.2487 0 7
-6.4063 8.1858 -4.8115 0.2446 0 7
-6.6795 8.1905 -4.8922 0.2405 0 7
-6.9573 8.1898 -4.9742 0.2366 0 7
-7.2396 8.1832 -5.0575 0.2327 0 7
-7.5263 8.1707 -5.1421 0.2288 0 7
-7.8173 8.1518 -5.2280 0.2251 0 7
-8.1124 8.1263 -5.3151 0.2214 0 7
-8.4111 8.0939 -5.4033 0.2178 0 7
-8.7137 8.0543 -5.4925 0.2142 0 7
-9.0193 8.0071 -5.5828 0.2108 0 7
-9.3282 7.9521 -5.6739 0.2074 0 7
-9.3464 7.6490 -5.5904 0.7584 0 8
-9.5873 7.5298 -5.6429 0.2009 0 8
-9.8914 7.4525 -5.7327 0.1977 0 8
-10.1971 7.3665 -5.8229 0.1946 0 8
-10.5036 7.2715 -5.9134 0.1917 0 8
-10.8107 7.1673 -6.0040 0.1888 0 8
-11.1177 7.0537 -6.0946 0.1860 0 8
-11.4243 6.9304 -6.1851 0.1832 0 8
-11.7295 6.7972 -6.2752 0.1806 0 8
-11.8833 6.5712 -6.2856 0.4346 0 0
-12.0010 6.3249 -6.2794 0.4419 0 0
-12.1109 6.0753 -6.2718 0.4425 0 0
-12.2159 5.8240 -6.2643 0.4430 0 0
-12.2700 5.5502 -6.2336 0.8696 0 0
-12.2976 5.2678 -6.1927 0.8754 0 0
-12.3232 4.9884 -6.1539 0.8809 0 0
-12.3385 4.7085 -6.1131 0.9141 0 0
-12.3648 4.4362 -6.0807 0.9190 0 0
-12.3893 4.1662 -6.0504 0.9236 0 0
-12.4121 3.8982 -6.0221 0.9280 0 0
-12.4332 3.6322 -5.9957 0.9320 0 0
-12.4527 3.3680 -5.9713 0.9359 0 0
-12.4705 3.1055 -5.9487 0.9394 0 0
-12.4809 2.8433 -5.9252 0.9386 0 0
-12.4781 2.5802 -5.8981 0.9317 0 0
-12.4720 2.3188 -5.8721 0.9358 0 0
-12.4646 2.0594 -5.8479 0.9397 0 0
-12.4559 1.8018 -5.8257 0.9432 0 0
-12.4456 1.5459 -5.8052 0.9466 0 0
-12.4342 1.2915 -5.7866 0.9496 0 0
-12.4213 1.0386 -5.7697 0.9524 0 0
-12.4324 0.7885 -5.7663 0.9461 0 0
-12.4264 0.5378 -5.7574 0.9413 0 0
-12.4168 0.2878 -5.7491 0.9426 0 0
-12.4056 0.0384 -5.7424 0.9437 0 0
-12.3930 -0.2106 -5.7374 0.9445 0 0
-12.3788 -0.4591 -5.7339 0.9451 0 0
-12.3631 -0.7073 -5.7321 0.9454 0 0
-12.3459 -0.9554 -5.7318 0.9455 0 0
-12.3337 -1.2040 -5.7362 0.9318 0 0
-12.3258 -1.4537 -5.7450 0.9312 0 0
-12.3159 -1.7039 -5.7551 0.9296 0 0
-12.3043 -1.9548 -5.7669 0.9277 0 0
-12.2910 -2.2066 -5.7803 0.9256 0 0
-12.2760 -2.4593 -5.7953 0.9232 0 0
-11.9889 -3.1346 -6.0785 0.9227 0 0
-11.9655 -3.3866 -6.0999 0.9179 0 0
-11.9198 -3.6338 -6.1126 0.4966 0 0
-11.8637 -3.8787 -6.1226 0.4958 0 0
-11.8032 -4.1230 -6.1328 0.4950 0 0
-11.7382 -4.3667 -6.1434 0.4941 0 0
-11.6689 -4.6097 -6.1543 0.4932 0 0
-11.5951 -4.8519 -6.1655 0.4924 0 0
-11.5168 -5.0932 -6.1770 0.4914 0 0
-9.7704 -4.5576 -5.2884 0.3552 0 5
-9.6952 -4.7619 -5.2984 0.9184 0 5
-10.9505 -5.6542 -6.0453 0.1966 0 8
-10.7048 -5.8025 -5.9728 0.1989 0 8
-10.4559 -5.9423 -5.8993 0.2014 0 8
-10.2045 -6.0736 -5.8251 0.2040 0 8
-9.9509 -6.1967 -5.7503 0.2066 0 8
-9.6960 -6.3115 -5.6750 0.2094 0 8
-9.4398 -6.4183 -5.5994 0.2122 0 8
-9.1831 -6.5171 -5.5236 0.2151 0 8
-8.9261 -6.6082 -5.4478 0.2181 0 8
-8.8439 -6.8265 -5.4802 0.8242 0 8
-8.7344 -7.0263 -5.4987 0.2244 0 7
-8.4694 -7.0979 -5.4204 0.2276 0 7
-8.2056 -7.1621 -5.3426 0.2309 0 7
-7.9432 -7.2193 -5.2652 0.2343 0 7
-7.6829 -7.2697 -5.1883 0.2378 0 7
-7.4247 -7.3134 -5.1121 0.2413 0 7
-7.1689 -7.3509 -5.0366 0.2449 0 7
-6.9157 -7.3821 -4.9619 0.2486 0 7
-6.6653 -7.4075 -4.8880 0.2524 0 7
-6.4179 -7.4272 -4.8150 0.2562 0 7
-6.1736 -7.4415 -4.7429 0.2601 0 7
-5.9327 -7.4505 -4.6717 0.2641 0 7
-5.6950 -7.4545 -4.6016 0.2681 0 7
-5.4609 -7.4538 -4.5325 0.2722 0 7
-5.2305 -7.4484 -4.4645 0.2763 0 7
-5.0037 -7.4387 -4.3975 0.2805 0 7
-4.7806 -7.4249 -4.3317 0.2848 0 7
-4.5615 -7.4070 -4.2670 0.2891 0 7
-4.3460 -7.3855 -4.2034 0.2935 0 7
-4.1346 -7.3603 -4.1410 0.2979 0 7
-3.9269 -7.3317 -4.0798 0.3024 0 7
-3.7233 -7.2999 -4.0196 0.3069 0 7
-3.5234 -7.2650 -3.9607 0.3115 0 7
-3.3276 -7.2272 -3.9029 0.3161 0 7
-3.1356 -7.1867 -3.8462 0.3207 0 7
-2.9475 -7.1436 -3.7907 0.3254 0 7
-2.7632 -7.0980 -3.7363 0.3302 0 7
-2.5828 -7.0502 -3.6830 0.3350 0 7
-2.4061 -7.0001 -3.6309 0.3398 0 7
-2.2333 -6.9479 -3.5799 0.3446 0 7
-2.0641 -6.8939 -3.5299 0.3495 0 7
-1.8986 -6.8380 -3.4811 0.3544 0 7
-1.7368 -6.7804 -3.4333 0.3593 0 7
-1.5785 -6.7212 -3.3866 0.3643 0 7
-1.4237 -6.6605 -3.3409 0.3693 0 7
-1.2725 -6.5984 -3.2963 0.3743 0 7
-1.1246 -6.5349 -3.2527 0.3793 0 7
-0.9802 -6.4702 -3.2100 0.3843 0 7
-0.8391 -6.4044 -3.1684 0.3894 0 7
-0.7012 -6.3375 -3.1277 0.3944 0 7
-0.5664 -6.2696 -3.0879 0.3995 0 7
-0.4349 -6.2007 -3.0491 0.4046 0 7
-0.3065 -6.1310 -3.0112 0.4097 0 7
-0.1811 -6.0605 -2.9741 0.4148 0 7
-0.0586 -5.9893 -2.9380 0.4199 0 7
0.0609 -5.9173 -2.9027 0.4250 0 7
0.1776 -5.8447 -2.8683 0.4301 0 7
0.2915 -5.7715 -2.8347 0.4352 0 7
0.4027 -5.6978 -2.8019 0.4403 0 7
0.5111 -5.6236 -2.7699 0.4454 0 7
0.6168 -5.5490 -2.7387 0.4505 0 7
0.7200 -5.4739 -2.7082 0.4555 0 7
0.8207 -5.3985 -2.6785 0.4606 0 7
0.9189 -5.3227 -2.6495 0.4656 0 7
1.0146 -5.2466 -2.6212 0.4706 0 7
1.1080 -5.1702 -2.5937 0.4756 0 7
1.1991 -5.0936 -2.5668 0.4806 0 7
1.2878 -5.0168 -2.5406 0.4856 0 7
1.3743 -4.9397 -2.5151 0.4905 0 7
1.4587 -4.8625 -2.4902 0.4954 0 7
1.5408 -4.7852 -2.4659 0.5003 0 7
1.6209 -4.7077 -2.4423 0.5051 0 7
1.6989 -4.6302 -2.4193 0.5099 0 7
1.7750 -4.5525 -2.3968 0.5147 0 7
1.8491 -4.4748 -2.3750 0.5194 0 7
1.9211 -4.3970 -2.3537 0.5241 0 7
1.9913 -4.3191 -2.3330 0.5288 0 7
2.0597 -4.2413 -2.3128 0.5334 0 7
2.1263 -4.1634 -2.2932 0.5380 0 7
2.1910 -4.0855 -2.2740 0.5425 0 7
2.2540 -4.0077 -2.2554 0.5470 0 7
2.3153 -3.9298 -2.2374 0.5514 0 7
2.3749 -3.8520 -2.2198 0.5558 0 7
2.4329 -3.7742 -2.2027 0.5601 0 7
2.4893 -3.6965 -2.1860 0.5643 0 7
2.5440 -3.6188 -2.1699 0.5685 0 7
2.5972 -3.5412 -2.1542 0.5727 0 7
2.6489 -3.4636 -2.1389 0.5768 0 7
2.6991 -3.3861 -2.1241 0.5808 0 7
2.7478 -3.3087 -2.1097 0.5848 0 7
2.7951 -3.2313 -2.0958 0.5886 0 7
2.8410 -3.1540 -2.0822 0.5925 0 7
2.8854 -3.0769 -2.0691 0.5962 0 7
2.9285 -2.9997 -2.0564 0.5999 0 7
2.9702 -2.9227 -2.0441 0.6035 0 7
3.0107 -2.8458 -2.0321 0.6071 0 7
3.0498 -2.7689 -2.0206 0.6105 0 7
3.0876 -2.6922 -2.0094 0.6139 0 7
3.1242 -2.6155 -1.9986 0.6173 0 7
3.1595 -2.5389 -1.9882 0.6205 0 7
3.1936 -2.4625 -1.9781 0.6236 0 7
3.2265 -2.3861 -1.9684 0.6267 0 7
3.2581 -2.3098 -1.9591 0.6297 0 7
3.2887 -2.2336 -1.9501 0.6326 0 7
3.3180 -2.1574 -1.9414 0.6354 0 7
3.3463 -2.0814 -1.9331 0.6382 0 7
3.3734 -2.0054 -1.9251 0.6408 0 7
3.3994 -1.9296 -1.9174 0.6434 0 7
3.4243 -1.8538 -1.9100 0.6459 0 7
3.4481 -1.7781 -1.9030 0.6483 0 7
3.4709 -1.7025 -1.8963 0.6506 0 7
3.4925 -1.6270 -1.8899 0.6528 0 7
3.5131 -1.5515 -1.8838 0.6549 0 7
3.5327 -1.4761 -1.8780 0.6569 0 7
3.5512 -1.4008 -1.8726 0.6588 0 7
3.5687 -1.3255 -1.8674 0.6606 0 7
3.5852 -1.2503 -1.8625 0.6624 0 7
3.6007 -1.1752 -1.8580 0.6640 0 7
3.6153 -1.1001 -1.8537 0.6655 0 7
3.6288 -1.0251 -1.8497 0.6670 0 7
3.6414 -0.9501 -1.8460 0.6683 0 7
3.6530 -0.8752 -1.8426 0.6695 0 7
3.6635 -0.8003 -1.8394 0.6707 0 7
3.6732 -0.7254 -1.8366 0.6717 0 7
3.6819 -0.6506 -1.8340 0.6727 0 7
3.6896 -0.5758 -1.8317 0.6735 0 7
3.6964 -0.5011 -1.8297 0.6742 0 7
3.7022 -0.4263 -1.8280 0.6749 0 7
3.7071 -0.3516 -1.8266 0.6754 0 7
3.7111 -0.2770 -1.8254 0.6758 0 7
3.7140 -0.2023 -1.8245 0.6762 0 7
3.7161 -0.1276 -1.8239 0.6764 0 7
3.7172 -0.0530 -1.8236 0.6765 0 7
3.7174 0.0217 -1.8235 0.6765 0 7
3.7167 0.0963 -1.8237 0.6764 0 7
3.7150 0.1710 -1.8242 0.6763 0 7
3.7123 0.2457 -1.8250 0.6760 0 7
3.7089 0.3203 -1.8261 0.6756 0 7
3.7043 0.3950 -1.8274 0.6751 0 7
3.6990 0.4697 -1.8290 0.6745 0 7
3.6925 0.5445 -1.8309 0.6738 0 7
3.6852 0.6193 -1.8330 0.6730 0 7
3.6770 0.6941 -1.8355 0.6721 0 7
3.6677 0.7689 -1.8382 0.6711 0 7
3.6575 0.8438 -1.8412 0.6700 0 7
3.6463 0.9187 -1.8445 0.6688 0 7
3.6342 0.9936 -1.8481 0.6675 0 7
3.6211 1.0686 -1.8520 0.6661 0 7
3.6070 1.1437 -1.8561 0.6646 0 7
