ply
format ascii 1.0
element vertex 1346
property float32 x
property float32 y
property float32 z
property float32 CosAngle
property uint32 ObjIdx
property uint32 ObjTag
end_header
-28.0497 -10.2330 3.8881 0.2566 0 9
-39.1652 -15.1858 5.4700 0.3668 0 9
-39.5383 -16.2508 5.5666 0.0680 0 9
-34.7027 -15.9201 4.9719 0.4998 0 9
-33.5917 -16.2344 4.8584 0.2365 0 9
-33.1408 -16.8453 4.8411 0.2374 0 9
-32.8804 -17.5521 4.8536 0.1274 0 9
-39.9906 -22.3905 5.9683 0.3405 0 9
-39.8147 -23.3539 6.0108 0.3046 0 9
-38.8554 -23.8522 5.9371 0.2521 0 9
-38.6299 -24.7949 5.9775 0.3865 0 9
-31.6294 -21.2100 4.9591 0.4782 0 9
-30.6349 -21.4469 4.8697 0.3145 0 9
-25.8051 -19.6550 4.2241 0.4227 0 9
-25.3973 -20.1625 4.2227 0.3622 0 9
-25.5615 -21.1431 4.3198 0.2772 0 9
-35.8628 -30.8967 6.1642 0.3799 0 9
-35.3568 -31.7193 6.1854 0.4566 0 9
-29.0250 -27.1100 5.1719 0.3419 0 9
-28.7374 -27.9424 5.2196 0.3670 0 9
-27.5464 -27.8817 5.1040 0.1457 0 9
-28.3601 -29.8818 5.3648 0.2354 0 9
-31.4875 -34.5398 6.0863 0.5342 0 9
-30.6994 -35.0636 6.0688 0.0693 0 9
-30.2535 -35.9869 6.1222 0.4139 0 9
-29.1847 -36.1652 6.0517 0.1496 0 9
-27.9061 -36.0377 5.9354 0.0845 0 9
-29.1621 -39.2631 6.3688 0.3730 0 9
-8.0205 -14.7403 2.1852 0.8627 0 9
-7.6497 -14.7569 2.1645 0.8710 0 9
-7.2857 -14.7733 2.1450 0.8789 0 9
-5.1033 -10.8938 1.5665 0.8181 0 9
-4.9379 -11.1163 1.5839 0.8091 0 9
-4.7688 -11.3440 1.6024 0.7997 0 9
-4.5956 -11.5774 1.6221 0.7901 0 9
-4.4183 -11.8169 1.6428 0.7801 0 9
-4.2363 -12.0629 1.6649 0.7697 0 9
-4.0371 -12.2788 1.6831 0.9118 0 9
-3.7660 -12.2797 1.6726 0.9176 0 9
-3.6374 -12.7695 1.7290 0.7577 0 9
-3.3249 -12.6290 1.7006 0.7703 0 9
-3.0222 -12.4930 1.6738 0.7827 0 9
-2.7236 -12.3369 1.6452 0.7468 0 9
-2.4332 -12.1781 1.6172 0.7598 0 9
-2.1524 -12.0245 1.5907 0.7724 0 9
-2.0241 -14.6833 1.9302 0.7097 0 9
-1.6977 -14.4554 1.8953 0.8056 0 9
0.7784 -17.8085 2.3213 0.9714 0 9
6.9671 -22.1578 3.0247 0.1645 0 1
6.6942 -19.8859 2.7323 0.1821 0 1
7.0028 -19.4989 2.6979 0.9575 0 1
7.4359 -19.4672 2.7137 0.9520 0 1
7.8742 -19.4354 2.7307 0.9460 0 1
7.8762 -18.3715 2.6029 0.9320 0 1
8.3047 -18.3454 2.6223 0.9330 0 1
8.8726 -18.5970 2.6832 0.4558 0 1
9.7175 -19.3582 2.8206 0.9092 0 1
10.2879 -19.5076 2.8719 0.8962 0 1
10.7826 -19.4873 2.9002 0.8876 0 1
11.0784 -19.1064 2.8760 0.1373 0 1
11.4166 -18.8090 2.8652 0.1379 0 1
12.2075 -19.2309 2.9662 0.8647 0 1
12.7787 -19.2649 3.0104 0.8669 0 1
13.3153 -19.2246 3.0453 0.8570 0 1
13.8647 -19.1834 3.0822 0.8467 0 1
14.4278 -19.1412 3.1213 0.8361 0 1
15.0056 -19.0978 3.1628 0.8252 0 1
18.8261 -22.9947 3.8699 0.8130 0 1
19.5637 -22.9403 3.9261 0.8014 0 1
20.3329 -22.8950 3.9874 0.7894 0 1
21.1166 -22.8372 4.0504 0.7772 0 1
21.9257 -22.7775 4.1170 0.7646 0 1
22.6877 -22.6414 4.1739 0.7517 0 1
13.5643 -6.1066 1.5974 0.8588 0 9
14.3634 -6.1226 1.6767 0.8012 0 9
15.6091 -6.2865 1.8070 0.3813 0 19
15.1264 -5.7420 1.7374 0.4210 0 19
15.5307 -5.5414 1.7707 0.1627 0 8
15.4634 -5.1699 1.7508 0.1645 0 8
15.9898 -4.9914 1.7987 0.1663 0 7
15.9307 -4.6241 1.7813 0.1679 0 7
15.8765 -4.2648 1.7653 0.1694 0 7
15.8272 -3.9127 1.7507 0.1708 0 7
15.7823 -3.5670 1.7375 0.1721 0 7
15.7419 -3.2272 1.7255 0.1733 0 7
15.7057 -2.8926 1.7149 0.1744 0 7
15.6737 -2.5625 1.7054 0.1754 0 7
15.6456 -2.2365 1.6971 0.1762 0 7
15.6214 -1.9139 1.6900 0.1770 0 7
15.6011 -1.5943 1.6840 0.1776 0 7
15.5846 -1.2771 1.6791 0.1781 0 7
15.5716 -0.9618 1.6753 0.1785 0 7
15.5623 -0.6480 1.6725 0.1788 0 7
15.5567 -0.3351 1.6709 0.1790 0 7
15.5546 -0.0228 1.6703 0.1791 0 7
15.5562 0.2895 1.6707 0.1790 0 7
15.5613 0.6023 1.6723 0.1788 0 7
15.5701 0.9159 1.6748 0.1786 0 7
15.5824 1.2309 1.6785 0.1782 0 7
15.5984 1.5478 1.6832 0.1777 0 7
15.6183 1.8671 1.6891 0.1771 0 7
15.6419 2.1892 1.6960 0.1763 0 7
15.6693 2.5147 1.7041 0.1755 0 7
15.7008 2.8441 1.7134 0.1746 0 7
15.1563 3.0609 1.6604 0.1735 0 8
15.1947 3.3874 1.6717 0.1723 0 8
14.7202 3.5933 1.6271 0.1710 0 19
13.6995 3.6370 1.5220 0.8472 0 9
13.6283 3.9126 1.5225 0.7740 0 9
13.9866 4.3211 1.5720 0.2052 0 9
15.4531 5.1162 1.7480 0.1648 0 8
15.5196 5.4862 1.7676 0.1630 0 8
15.5916 5.8664 1.7888 0.1610 0 8
15.6695 6.2575 1.8118 0.1590 0 8
15.7535 6.6608 1.8366 0.1568 0 8
15.9868 7.1410 1.8802 0.1559 0 0
16.0758 7.5714 1.9081 0.1536 0 0
16.1720 8.0172 1.9382 0.1512 0 0
16.2755 8.4797 1.9707 0.1522 0 0
16.3841 8.9589 2.0052 0.1496 0 0
16.3967 9.3982 2.0294 0.8893 0 8
14.5335 8.7223 1.8201 0.9018 0 9
14.2234 8.9294 1.8034 0.9102 0 9
16.6647 10.9344 2.1403 0.1367 0 8
16.7697 11.4914 2.1830 0.1410 0 8
16.8493 12.0500 2.2244 0.1434 0 8
16.9204 12.6217 2.2668 0.1428 0 8
17.0027 13.2225 2.3129 0.1389 0 8
17.2329 13.9656 2.3818 0.1399 0 0
17.3789 14.6715 2.4422 0.1261 0 0
17.5426 15.4233 2.5083 0.1228 0 0
17.8100 16.3038 2.5928 0.1076 0 0
18.1188 17.2675 2.6876 0.1038 0 0
18.4773 18.3310 2.7949 0.0974 0 0
18.8849 19.5029 2.9152 0.0934 0 0
19.3382 20.7903 3.0490 0.0893 0 0
19.8449 22.2130 3.1985 0.0851 0 0
20.4146 23.7952 3.3666 0.0809 0 0
21.0591 25.5675 3.5569 0.0765 0 0
21.7935 27.5687 3.7736 0.0721 0 0
22.6375 29.8489 4.0227 0.0677 0 0
21.7637 29.9258 3.9735 0.7570 0 11
20.7839 29.8190 3.9031 0.7697 0 11
19.8847 29.7861 3.8458 0.7821 0 11
18.9891 29.7196 3.7872 0.7942 0 11
18.0992 29.6209 3.7277 0.5902 0 11
17.2394 29.5301 3.6718 0.8175 0 11
18.0172 32.3364 3.9749 0.9674 0 1
17.3780 32.7171 3.9781 0.9804 0 1
16.8037 33.2290 3.9985 0.5243 0 1
16.3570 34.0251 4.0539 0.8575 0 1
15.4931 33.9571 4.0080 0.8674 0 1
14.9943 34.6914 4.0583 0.4758 0 1
14.8240 36.2804 4.2085 0.4602 0 1
14.6396 37.9894 4.3718 0.4446 0 1
14.3427 39.5686 4.5195 0.9055 0 1
13.4277 39.5018 4.4801 0.9135 0 1
12.5281 39.4362 4.4433 0.9210 0 1
11.7393 39.6974 4.4453 0.3713 0 1
-2.1062 11.9697 1.3051 0.1818 0 9
-2.8233 11.8234 1.3053 0.9497 0 9
-3.0521 11.7339 1.3019 0.9304 0 9
-3.3133 11.7632 1.3123 0.9230 0 9
-3.5786 11.7930 1.3234 0.9153 0 9
-3.8486 11.8231 1.3351 0.9072 0 9
-4.6645 13.4090 1.5245 0.7667 0 9
-3.8206 10.3112 1.1808 0.9932 0 9
-3.1301 7.9538 0.9178 0.1703 0 9
-3.1331 7.5151 0.8743 0.5662 0 9
-3.3816 7.6738 0.9005 0.5497 0 9
-4.6232 9.9455 1.1777 0.9923 0 9
-4.8166 9.8398 1.1764 0.9934 0 9
-5.0096 9.7342 1.1756 0.9941 0 9
-5.2024 9.6288 1.1752 0.9944 0 9
-5.3951 9.5233 1.1753 0.9943 0 9
-5.5880 9.4179 1.1759 0.9938 0 9
-6.3226 10.1844 1.2872 0.7389 0 9
-6.6117 10.1879 1.3042 0.7293 0 9
-6.9088 10.1917 1.3222 0.7194 0 9
-7.2146 10.1959 1.3412 0.7092 0 9
-34.7245 32.6262 5.1164 0.2625 0 9
-34.2003 30.8648 4.9469 0.1870 0 9
-35.9836 31.1866 5.1132 0.4887 0 9
-36.6257 30.4776 5.1165 0.2574 0 9
-38.3482 30.6295 5.2702 0.2213 0 9
-33.5969 25.7469 4.5452 0.1392 0 9
-34.2115 25.1442 4.5592 0.1388 0 9
-35.7840 25.2096 4.7004 0.5771 0 9
-31.0312 16.6831 3.7832 0.1974 0 9
-30.4736 15.6031 3.6763 0.2031 0 9
-31.1561 15.1711 3.7211 0.2744 0 9
-30.8383 14.2577 3.6482 0.2799 0 9
-32.1960 14.1082 3.7746 0.5032 0 9
-31.9918 13.2598 3.7187 0.4059 0 9
-33.4475 13.0827 3.8566 0.4925 0 9
-28.5705 7.3684 3.1683 0.3132 0 9
-26.6584 6.3074 2.9416 0.0996 0 9
-27.1047 5.8411 2.9773 0.3020 0 9
-27.0588 5.2652 2.9601 0.3380 0 9
-27.6589 4.8078 3.0146 0.2663 0 9
-28.3946 4.3505 3.0846 0.2603 0 9
-29.1701 3.8717 3.1598 0.2541 0 9
-37.2303 4.1830 4.0230 0.2491 0 9
-28.8259 2.6540 3.1084 0.0656 0 9
-37.4108 2.6883 4.0276 0.4583 0 9
-36.8299 1.9046 3.9601 0.4361 0 9
-36.6854 1.1593 3.9413 0.3712 0 9
-37.4213 0.4310 4.0186 0.3324 0 9
-38.7310 -0.3315 4.1592 0.4499 0 9
-38.0363 -1.0894 4.0861 0.3866 0 9
-37.7951 -1.8424 4.0633 0.4605 0 9
-33.0980 -2.2801 3.5625 0.4728 0 9
-31.9965 -2.8506 3.4494 0.2991 0 9
-32.5146 -3.5559 3.5123 0.4249 0 9
-33.4795 -4.3431 3.6252 0.3609 0 9
-34.5558 -7.3400 3.7934 0.4237 0 9
-34.4787 -8.0501 3.8020 0.4227 0 9
-33.9403 -8.6463 3.7609 0.2917 0 9
-33.8994 -9.3644 3.7765 0.4705 0 9
-36.0126 -10.7307 4.0351 0.1245 0 9
-38.0803 -12.1843 4.2933 0.2091 0 9
-40.9533 -14.0158 4.6480 0.1753 0 9
-28.5802 -10.4265 3.2669 0.6621 0 9
-33.9355 -15.5681 4.0092 0.2176 0 9
-32.5276 -15.7201 3.8794 0.3366 0 9
-32.1769 -16.3554 3.8760 0.0719 0 9
-32.6454 -17.4267 3.9737 0.4563 0 9
-32.7949 -18.3617 4.0360 0.1089 0 9
-37.9744 -22.2744 4.7275 0.3429 0 9
-37.3974 -22.9572 4.7121 0.3440 0 9
-30.8653 -19.8111 3.9383 0.2712 0 9
-30.6954 -20.5837 3.9686 0.4225 0 9
-29.9258 -20.9505 3.9227 0.4684 0 9
-25.8333 -18.8693 3.4352 0.0719 0 9
-26.6464 -20.2958 3.5968 0.4305 0 9
-25.6664 -20.3762 3.5190 0.3555 0 9
-24.9981 -20.6771 3.4836 0.3453 0 9
-35.5022 -30.5861 5.0320 0.4632 0 9
-29.5827 -26.5392 4.2676 0.0427 0 9
-29.4513 -27.5082 4.3275 0.2079 0 9
-28.4736 -27.6858 4.2646 0.3797 0 9
-27.7710 -28.1089 4.2431 0.4436 0 9
-27.3033 -28.7683 4.2590 0.1803 0 9
-26.1571 -28.6926 4.1692 0.0839 0 9
-31.0836 -35.5025 5.0671 0.1887 0 9
-29.0662 -34.5747 4.8504 0.0792 0 9
-29.7199 -36.8285 5.0818 0.4070 0 9
-29.5894 -38.2115 5.1896 0.3334 0 9
-28.6102 -38.5199 5.1524 0.4301 0 9
-5.0671 -10.8166 1.2826 0.8261 0 9
-4.9025 -11.0366 1.2968 0.8171 0 9
-4.7342 -11.2618 1.3118 0.8077 0 9
-4.5619 -11.4925 1.3278 0.7980 0 9
-4.3854 -11.7291 1.3446 0.7880 0 9
-4.2044 -11.9721 1.3625 0.7777 0 9
-4.0184 -12.2219 1.3815 0.7670 0 9
-3.8034 -12.4015 1.3929 0.9110 0 9
-3.6363 -12.7654 1.4253 0.7599 0 9
-3.3238 -12.6251 1.4019 0.7726 0 9
-3.0213 -12.4892 1.3798 0.7850 0 9
-2.7235 -12.3365 1.3566 0.7489 0 9
-2.4332 -12.1777 1.3335 0.7618 0 9
-2.1524 -12.0242 1.3117 0.7745 0 9
-1.7051 -14.5180 1.5697 0.7216 0 9
6.8746 -23.5022 2.6294 0.1565 0 1
6.6724 -21.2207 2.3887 0.2443 0 1
6.5775 -19.5392 2.2139 0.2629 0 1
6.8230 -18.9986 2.1677 0.8093 0 1
7.1600 -18.7451 2.1547 0.9188 0 1
7.4961 -18.5020 2.1436 0.9920 0 1
7.8954 -18.4164 2.1517 0.9417 0 1
8.3257 -18.3918 2.1679 0.9350 0 1
8.8146 -18.4755 2.1982 0.6734 0 1
9.7208 -19.3647 2.3267 0.9109 0 1
10.2905 -19.5126 2.3688 0.8983 0 1
10.9223 -19.7400 2.4225 0.8936 0 1
11.4314 -19.7151 2.4472 0.8846 0 1
11.8356 -19.4995 2.4494 0.4805 0 1
12.3246 -19.4153 2.4694 0.4978 0 1
12.7399 -19.2064 2.4749 0.8688 0 1
13.3229 -19.2356 2.5126 0.8588 0 1
13.8727 -19.1945 2.5431 0.8485 0 1
14.4363 -19.1524 2.5754 0.8379 0 1
15.0145 -19.1091 2.6096 0.8269 0 1
18.8461 -23.0191 3.1946 0.8147 0 1
19.5207 -22.8898 3.2304 0.8031 0 1
19.9246 -22.4354 3.2220 0.0845 0 0
19.4083 -20.9897 3.0698 0.0827 0 0
18.8699 -19.6030 2.9218 0.0879 0 0
18.4734 -18.4357 2.8025 0.0976 0 0
13.6308 -6.1366 1.2654 0.8621 0 19
13.7302 -5.8527 1.2635 0.4573 0 19
13.7976 -5.5569 1.2592 0.1807 0 8
13.8886 -5.2721 1.2576 0.4518 0 8
14.2285 -5.0768 1.2788 0.1848 0 7
14.1855 -4.7427 1.2662 0.1866 0 7
14.1458 -4.4158 1.2545 0.1884 0 7
14.1093 -4.0954 1.2437 0.1900 0 7
14.0758 -3.7811 1.2338 0.1915 0 7
14.0452 -3.4721 1.2248 0.1929 0 7
14.0173 -3.1681 1.2165 0.1942 0 7
13.9922 -2.8685 1.2091 0.1954 0 7
13.9696 -2.5728 1.2025 0.1965 0 7
13.9496 -2.2806 1.1965 0.1975 0 7
13.9321 -1.9915 1.1914 0.1983 0 7
13.9170 -1.7051 1.1869 0.1991 0 7
13.9042 -1.4209 1.1832 0.1997 0 7
13.8938 -1.1385 1.1801 0.2002 0 7
13.8858 -0.8577 1.1777 0.2006 0 7
13.8799 -0.5779 1.1760 0.2009 0 7
13.8764 -0.2989 1.1749 0.2011 0 7
13.8752 -0.0203 1.1746 0.2012 0 7
13.8760 0.2583 1.1748 0.2011 0 7
13.8793 0.5372 1.1758 0.2010 0 7
13.8847 0.8168 1.1774 0.2007 0 7
13.8925 1.0974 1.1797 0.2003 0 7
13.9025 1.3795 1.1827 0.1998 0 7
13.9149 1.6635 1.1863 0.1992 0 7
13.9297 1.9496 1.1907 0.1984 0 7
13.9469 2.2383 1.1957 0.1976 0 7
13.9665 2.5300 1.2015 0.1967 0 7
13.8545 2.7980 1.1965 0.1247 0 8
13.4970 3.0089 1.1706 0.1944 0 8
13.5234 3.3011 1.1784 0.1931 0 8
13.0927 3.4759 1.1467 0.1917 0 19
13.5382 3.8867 1.1923 0.1902 0 19
13.1571 4.0649 1.1657 0.1886 0 19
13.6569 4.5215 1.2178 0.1869 0 8
13.6978 4.8422 1.2299 0.1850 0 8
13.7419 5.1704 1.2429 0.1831 0 8
13.7896 5.5068 1.2570 0.1811 0 8
13.8408 5.8520 1.2721 0.1789 0 8
13.8959 6.2070 1.2883 0.1766 0 8
13.9550 6.5725 1.3058 0.1743 0 8
14.1480 7.0138 1.3367 0.1761 0 0
14.2053 7.4011 1.3559 0.1708 0 0
14.2708 7.8033 1.3768 0.1682 0 0
14.3412 8.2200 1.3993 0.1655 0 0
14.4170 8.6525 1.4233 0.1627 0 0
14.4983 9.1020 1.4491 0.1598 0 0
14.5858 9.5703 1.4768 0.1568 0 0
14.6797 10.0592 1.5064 0.1537 0 0
14.7808 10.5707 1.5383 0.1505 0 0
14.8761 11.0969 1.5711 0.1525 0 0
14.9208 11.6035 1.6000 0.1660 0 0
14.9482 12.1141 1.6287 0.1631 0 0
14.9797 12.6461 1.6595 0.1601 0 0
15.0156 13.2016 1.6925 0.1569 0 0
15.0651 13.7910 1.7290 0.1514 0 0
15.1298 14.4190 1.7692 0.1427 0 0
15.2078 15.0873 1.8134 0.1392 0 0
15.3629 15.8656 1.8695 0.1179 0 0
15.5766 16.7463 1.9360 0.1138 0 0
15.8172 17.7046 2.0097 0.1070 0 0
16.0995 18.7655 2.0930 0.1028 0 0
16.4117 19.9253 2.1852 0.0984 0 0
16.7587 21.1997 2.2876 0.0940 0 0
17.1462 22.6083 2.4020 0.0895 0 0
17.5814 24.1751 2.5304 0.0850 0 0
18.0733 25.9302 2.6756 0.0804 0 0
18.6334 27.9118 2.8409 0.0757 0 0
18.9775 29.7014 2.9837 0.7964 0 11
18.1092 29.6372 2.9402 0.8083 0 11
17.2448 29.5394 2.8955 0.8197 0 11
16.4447 29.5141 2.8601 0.8309 0 11
15.6455 29.4551 2.8234 0.8417 0 11
14.8484 29.3623 2.7854 0.8522 0 11
14.0759 29.2797 2.7502 0.8623 0 11
15.4839 33.9370 3.1577 0.8698 0 1
15.1976 35.1618 3.2427 0.4719 0 1
15.0317 36.7886 3.3642 0.4548 0 1
14.8526 38.5423 3.4966 0.4392 0 1
14.3351 39.5477 3.5610 0.9080 0 1
13.4206 39.4811 3.5300 0.9159 0 1
12.5217 39.4157 3.5010 0.9235 0 1
11.9445 40.3914 3.5656 0.3657 0 1
-4.8456 14.8862 1.3252 0.5393 0 9
-3.6193 10.4043 0.9325 0.9935 0 9
-3.8215 10.3137 0.9311 0.9951 0 9
-3.0159 7.6637 0.6972 0.1772 0 9
-3.1522 7.5609 0.6934 0.5640 0 9
-3.3999 7.7155 0.7137 0.6156 0 9
-4.6233 9.9457 0.9284 0.9944 0 9
-4.8167 9.8400 0.9274 0.9955 0 9
-5.0097 9.7344 0.9268 0.9962 0 9
-5.2025 9.6290 0.9265 0.9965 0 9
-5.3953 9.5235 0.9266 0.9964 0 9
-5.9692 10.0603 0.9903 0.7588 0 9
-6.2466 10.0620 1.0026 0.7495 0 9
-6.5312 10.0638 1.0156 0.7399 0 9
-6.8236 10.0660 1.0294 0.7299 0 9
-7.1242 10.0683 1.0441 0.7197 0 9
-7.4339 10.0709 1.0596 0.7092 0 9
-33.6532 31.6196 3.9090 0.2613 0 9
-34.3559 31.0051 3.9175 0.4648 0 9
-35.5674 30.8259 3.9843 0.1508 0 9
-35.9135 29.8850 3.9551 0.0367 0 9
-38.2484 30.5497 4.1439 0.4253 0 9
-33.8955 25.9758 3.6150 0.4130 0 9
-34.7783 25.5608 3.6537 0.4994 0 9
-34.3658 24.2105 3.5586 0.2376 0 9
-37.8028 21.3124 3.6736 0.2542 0 9
-30.5194 16.4080 2.9332 0.2927 0 9
-30.2156 15.4710 2.8736 0.2052 0 9
-28.0467 13.6570 2.6407 0.1060 0 9
-29.9070 13.8272 2.7892 0.3395 0 9
-30.6674 13.4383 2.8344 0.3341 0 9
-8.8774 3.6794 0.8135 0.5939 0 5
-31.9337 12.4906 2.9027 0.3937 0 9
-33.8595 12.4662 3.0544 0.1974 0 9
-45.1513 14.5939 4.0168 0.1228 0 9
-47.3632 14.2654 4.1873 0.2126 0 9
-29.6861 7.6561 2.5952 0.1696 0 9
-27.6742 6.5477 2.4074 0.3257 0 9
-28.4485 6.1307 2.4635 0.3182 0 9
-29.0488 5.6524 2.5051 0.3588 0 9
-28.9084 5.0250 2.4839 0.3619 0 9
-28.7728 4.4084 2.4641 0.3648 0 9
-36.6043 4.8585 3.1258 0.3385 0 9
-35.8113 4.0235 3.0505 0.0142 0 9
-38.3922 3.5347 3.2637 0.3970 0 9
-37.6134 2.7029 3.1923 0.4573 0 9
-37.4859 1.9385 3.1775 0.2023 0 9
-36.6403 1.1579 3.1032 0.3302 0 9
-36.5991 -0.3133 3.0983 0.2797 0 9
-37.2244 -1.0662 3.1524 0.0943 0 9
-36.7329 -1.7906 3.1132 0.3196 0 9
-32.0481 -2.2078 2.7194 0.3820 0 9
-31.8062 -2.8336 2.7031 0.3191 0 9
-31.7921 -3.4769 2.7073 0.1723 0 9
-32.8069 -4.2558 2.8004 0.2585 0 9
-36.3411 -6.2064 3.1209 0.1683 0 9
-33.5534 -6.4260 2.8920 0.2735 0 9
-33.5210 -7.1202 2.9010 0.4579 0 9
-33.2862 -7.7717 2.8935 0.4591 0 9
-32.8973 -8.3806 2.8738 0.4418 0 9
-32.6047 -9.0068 2.8634 0.2238 0 9
-31.8174 -9.4807 2.8104 0.1279 0 9
-30.7895 -9.8515 2.7366 0.1314 0 9
-39.5026 -13.5193 3.5344 0.2401 0 9
-28.3188 -10.3311 2.5518 0.6697 0 9
-38.0831 -14.7662 3.4577 0.1403 0 9
-34.7796 -15.1179 3.2103 0.0560 0 9
-35.4495 -16.2627 3.3016 0.3115 0 9
-27.6597 -13.3674 2.6006 0.0922 0 9
-32.5779 -16.5591 3.0936 0.3573 0 9
-31.9243 -17.0418 3.0634 0.2127 0 9
-31.5303 -17.6537 3.0590 0.4193 0 9
-38.9551 -22.8497 3.8231 0.4220 0 9
-38.2799 -23.4990 3.8024 0.4243 0 9
-37.8117 -24.2697 3.8035 0.1581 0 9
-31.1636 -20.8975 3.1763 0.1434 0 9
-30.3315 -21.2345 3.1343 0.4988 0 9
-40.0985 -29.2886 4.2035 0.1168 0 9
-25.7771 -19.6337 2.7430 0.3644 0 9
-25.0910 -19.9194 2.7120 0.3099 0 9
-25.1256 -20.7825 2.7602 0.2930 0 9
-24.4135 -21.0330 2.7279 0.1164 0 9
-34.2218 -30.7011 3.8919 0.1880 0 9
-29.2665 -27.3355 3.3901 0.3166 0 9
-27.9826 -27.2084 3.3040 0.3625 0 9
-27.5774 -27.9130 3.3217 0.3771 0 9
-27.1179 -28.5729 3.3347 0.3627 0 9
-26.3838 -28.9413 3.3152 0.1979 0 9
-25.4403 -29.0572 3.2693 0.0860 0 9
-29.6468 -35.2654 3.9001 0.4161 0 9
-27.7738 -34.4169 3.7438 0.0986 0 9
-28.6924 -37.0531 3.9671 0.4672 0 9
-27.7603 -37.3756 3.9411 0.2310 0 9
-26.1147 -36.6759 3.8113 0.1371 0 9
-4.7003 -11.1811 1.0267 0.8153 0 9
-4.5288 -11.4092 1.0391 0.8056 0 9
-4.3532 -11.6430 1.0522 0.7955 0 9
-4.1730 -11.8830 1.0662 0.7852 0 9
-3.9881 -12.1298 1.0809 0.7745 0 9
-3.6351 -12.7614 1.1233 0.7618 0 9
-3.3228 -12.6211 1.1048 0.7745 0 9
-3.0204 -12.4853 1.0874 0.7869 0 9
-2.7234 -12.3362 1.0694 0.7505 0 9
-1.7143 -14.5962 1.2441 0.7193 0 9
-1.4301 -14.7219 1.2521 0.2209 0 9
0.5814 -6.9191 0.5878 0.5787 21 5
0.7228 -6.9311 0.5899 0.6281 21 18
0.8606 -6.9064 0.5892 0.9270 21 18
6.0577 -20.7095 1.8266 0.1090 0 1
6.1965 -19.7071 1.7488 0.1162 0 1
6.6025 -19.6132 1.7519 0.9664 0 1
6.9043 -19.2247 1.7292 0.8044 0 1
7.2111 -18.8788 1.7108 0.9163 0 1
7.5205 -18.5622 1.6954 0.9909 0 1
7.9179 -18.4688 1.7011 0.9432 0 1
8.3493 -18.4438 1.7138 0.9287 0 1
8.7842 -18.4117 1.7269 0.6772 0 1
9.5474 -19.0192 1.8015 0.9562 0 1
10.2931 -19.5175 1.8679 0.9000 0 1
10.9264 -19.7473 1.9105 0.8938 0 1
11.4357 -19.7225 1.9299 0.8862 0 1
11.9304 -19.6556 1.9464 0.8837 0 1
12.3370 -19.4350 1.9487 0.8627 0 1
12.7729 -19.2562 1.9561 0.8732 0 1
13.3092 -19.2158 1.9787 0.8600 0 1
13.8587 -19.1751 2.0028 0.8497 0 1
14.4216 -19.1330 2.0282 0.8396 0 1
14.9991 -19.0895 2.0551 0.8286 0 1
15.5308 -18.9698 2.0754 0.8172 0 1
16.0116 -18.7752 2.0888 0.1075 0 0
15.7571 -17.7427 2.0088 0.1118 0 0
15.5618 -16.8298 1.9404 0.1279 0 0
15.4106 -16.0093 1.8811 0.1313 0 0
15.2693 -15.2382 1.8261 0.1353 0 0
12.3883 -5.5772 0.8425 0.5084 0 8
12.5949 -5.3688 0.8490 0.4576 0 8
12.7932 -5.1524 0.8552 0.2027 0 7
12.7639 -4.8452 0.8466 0.2048 0 7
12.7368 -4.5445 0.8386 0.2067 0 7
12.7115 -4.2499 0.8311 0.2086 0 7
12.6882 -3.9607 0.8242 0.2103 0 7
12.6666 -3.6767 0.8179 0.2120 0 7
12.6468 -3.3972 0.8120 0.2135 0 7
12.6287 -3.1220 0.8067 0.2149 0 7
12.6121 -2.8505 0.8018 0.2162 0 7
12.5972 -2.5825 0.7974 0.2174 0 7
12.5838 -2.3176 0.7935 0.2185 0 7
12.5720 -2.0554 0.7899 0.2195 0 7
12.5615 -1.7956 0.7869 0.2203 0 7
12.5525 -1.5379 0.7842 0.2211 0 7
12.5450 -1.2819 0.7820 0.2217 0 7
12.5387 -1.0275 0.7801 0.2222 0 7
12.5339 -0.7742 0.7787 0.2226 0 7
12.5304 -0.5217 0.7777 0.2229 0 7
12.5283 -0.2699 0.7771 0.2231 0 7
12.5276 -0.0183 0.7768 0.2232 0 7
12.5281 0.2332 0.7770 0.2231 0 7
12.5300 0.4849 0.7776 0.2230 0 7
12.5333 0.7373 0.7785 0.2227 0 7
12.5379 0.9904 0.7799 0.2223 0 7
12.5439 1.2447 0.7817 0.2218 0 7
12.5513 1.5004 0.7838 0.2212 0 7
12.5601 1.7579 0.7864 0.2204 0 7
12.5703 2.0173 0.7895 0.2196 0 7
12.5820 2.2792 0.7929 0.2187 0 7
12.5952 2.5437 0.7968 0.2176 0 7
12.1451 2.7076 0.7716 0.2164 0 8
12.1608 2.9685 0.7762 0.2151 0 8
12.1780 3.2331 0.7813 0.2137 0 8
11.7830 3.3828 0.7602 0.2122 0 19
12.1759 3.7617 0.7902 0.2106 0 19
11.8243 3.9148 0.7724 0.2089 0 19
12.2636 4.3352 0.8066 0.2070 0 8
12.2895 4.6240 0.8142 0.2051 0 8
12.3174 4.9189 0.8225 0.2030 0 8
12.3472 5.2206 0.8313 0.2009 0 8
12.3794 5.5296 0.8408 0.1986 0 8
12.4137 5.8466 0.8509 0.1962 0 8
12.4504 6.1722 0.8617 0.1938 0 8
12.4897 6.5072 0.8733 0.1912 0 8
12.6465 6.9151 0.8938 0.1933 0 0
12.6826 7.2693 0.9065 0.1874 0 0
12.7243 7.6366 0.9202 0.1846 0 0
12.7689 8.0163 0.9349 0.1817 0 0
12.8168 8.4096 0.9506 0.1787 0 0
12.8679 8.8178 0.9673 0.1756 0 0
12.9229 9.2420 0.9852 0.1724 0 0
12.9816 9.6837 1.0043 0.1692 0 0
13.0447 10.1445 1.0247 0.1658 0 0
13.1123 10.6262 1.0466 0.1623 0 0
13.1820 11.1284 1.0697 0.1767 0 0
13.1907 11.5971 1.0891 0.1736 0 0
13.1999 12.0835 1.1097 0.1756 0 0
13.2039 12.5837 1.1310 0.1723 0 0
13.2101 13.1055 1.1539 0.1689 0 0
13.2183 13.6509 1.1783 0.1654 0 0
13.2358 14.2297 1.2051 0.1565 0 0
13.2600 14.8422 1.2342 0.1528 0 0
13.3330 15.5410 1.2697 0.1273 0 0
13.4721 16.3562 1.3140 0.1230 0 0
13.6239 17.2342 1.3623 0.1187 0 0
13.8092 18.2083 1.4171 0.1114 0 0
14.0138 19.2696 1.4775 0.1068 0 0
14.2401 20.4307 1.5443 0.1022 0 0
14.4915 21.7076 1.6185 0.0975 0 0
14.7722 23.1200 1.7013 0.0928 0 0
15.0875 24.6921 1.7944 0.0880 0 0
15.4437 26.4544 1.8995 0.0831 0 0
15.8495 28.4458 2.0193 0.0782 0 0
15.6365 29.4381 2.0670 0.8436 0 11
14.8578 29.3808 2.0417 0.8540 0 11
14.0807 29.2898 2.0153 0.8642 0 11
13.3547 29.2703 1.9951 0.8740 0 11
12.6130 29.1818 1.9714 0.8834 0 11
11.9166 29.1645 1.9537 0.8925 0 11
11.1955 29.0520 1.9307 0.9012 0 11
14.3275 39.5268 2.6071 0.9099 0 1
13.4137 39.4605 2.5845 0.9179 0 1
12.5152 39.3952 2.5632 0.9255 0 1
12.1562 41.1073 2.6582 0.3599 0 1
-2.9356 7.4594 0.4971 0.3257 0 9
-3.1714 7.6071 0.5111 0.5615 0 9
-4.4267 10.0453 0.6807 0.9987 0 9
-4.6234 9.9459 0.6801 0.9960 0 9
-4.8168 9.8402 0.6794 0.9971 0 9
-5.0098 9.7346 0.6789 0.9978 0 9
-5.2026 9.6292 0.6787 0.9981 0 9
-5.3954 9.5238 0.6788 0.9980 0 9
-5.8994 9.9428 0.7169 0.7691 0 9
-6.1727 9.9429 0.7257 0.7597 0 9
-6.4530 9.9433 0.7350 0.7501 0 9
-6.7407 9.9437 0.7449 0.7401 0 9
-34.1082 36.1518 3.0821 0.1805 0 9
-33.6721 31.6374 2.8651 0.3440 0 9
-34.3776 31.0248 2.8715 0.3657 0 9
-35.0924 30.4142 2.8796 0.3581 0 9
-37.7143 31.3836 3.0425 0.3781 0 9
-33.8706 25.9567 2.6461 0.4009 0 9
-33.5154 24.6327 2.5792 0.3932 0 9
-34.5069 24.3099 2.6175 0.3874 0 9
-38.3558 22.6507 2.7622 0.2470 0 9
-37.7245 21.2683 2.6854 0.5879 0 9
-30.2092 16.2411 2.1268 0.1965 0 9
-30.5992 15.6674 2.1317 0.1960 0 9
-30.9836 15.0871 2.1370 0.3336 0 9
-30.8713 14.2731 2.1091 0.1361 0 9
-30.5631 13.3927 2.0692 0.1388 0 9
-8.7997 3.6473 0.5907 0.9420 0 5
-30.4244 11.9003 2.0258 0.3430 0 9
-32.5813 11.9956 2.1529 0.1435 0 9
-46.6433 16.1172 3.0601 0.4920 0 9
-26.8077 8.6649 1.7470 0.0702 0 9
-29.0033 8.1043 1.8674 0.3207 0 9
-27.6434 7.1293 1.7703 0.3412 0 9
-27.6407 6.5398 1.7613 0.3429 0 9
-27.6395 5.9563 1.7533 0.3762 0 9
-27.5153 5.3540 1.7382 0.3794 0 9
-27.3946 4.7619 1.7242 0.3825 0 9
-27.5942 4.2279 1.7311 0.1419 0 9
-36.8994 4.8976 2.3082 0.3349 0 9
-36.4540 4.0957 2.2747 0.2450 0 9
-35.8849 3.3039 2.2346 0.2494 0 9
-36.3423 2.6115 2.2594 0.4045 0 9
-35.9026 1.8566 2.2293 0.1790 0 9
-36.7291 1.1607 2.2787 0.4846 0 9
-36.3533 0.4187 2.2544 0.2905 0 9
-37.1373 -0.3179 2.3030 0.2683 0 9
-37.2922 -1.0681 2.3135 0.1591 0 9
-33.1357 -1.6152 2.0572 0.3944 0 9
-32.3244 -2.2268 2.0092 0.3146 0 9
-31.8277 -2.8355 1.9814 0.3978 0 9
-31.9110 -3.4899 1.9906 0.3960 0 9
-31.9969 -4.1508 2.0008 0.3940 0 9
-34.5437 -6.6157 2.1810 0.1746 0 9
-32.9649 -7.0020 2.0898 0.4089 0 9
-32.5307 -7.5953 2.0715 0.3481 0 9
-31.5592 -8.0398 2.0195 0.1156 0 9
-33.2755 -10.6469 2.1665 0.2654 0 9
-37.1544 -12.7157 2.4352 0.4322 0 9
-28.0786 -10.2435 1.8534 0.9059 0 9
-37.5948 -14.5769 2.5004 0.3699 0 9
-38.5098 -15.8280 2.5818 0.2047 0 9
-34.1274 -17.3467 2.3739 0.7754 0 9
-35.5768 -18.9916 2.5007 0.4320 0 9
-34.8325 -19.5025 2.4754 0.4841 0 9
-37.2420 -21.8449 2.6773 0.3861 0 9
-35.5630 -21.8311 2.5877 0.0661 0 9
-30.5833 -20.5084 2.2834 0.2999 0 9
-29.6483 -20.7562 2.2443 0.3798 0 9
-29.8080 -21.7724 2.2890 0.1362 0 9
-25.7169 -19.5878 2.0046 0.4713 0 9
-24.9587 -19.8143 1.9761 0.4079 0 9
-24.2522 -20.0602 1.9517 0.3035 0 9
-24.2546 -20.8960 1.9852 0.3040 0 9
-30.5582 -27.4145 2.5457 0.1000 0 9
-28.8516 -26.9481 2.4481 0.4764 0 9
-27.7455 -26.9779 2.3998 0.3381 0 9
-27.3409 -27.6735 2.4123 0.4315 0 9
-26.7301 -28.1642 2.4078 0.2003 0 9
-26.9339 -29.5447 2.4791 0.2913 0 9
-29.1102 -33.2487 2.7403 0.2066 0 9
-29.1204 -34.6390 2.8062 0.1386 0 9
-30.4592 -37.7446 3.0076 0.9271 0 9
-28.8946 -37.3140 2.9264 0.5053 0 9
-27.7496 -37.3613 2.8859 0.2400 0 9
-25.6333 -35.9997 2.7404 0.0685 0 9
-10.7199 -25.5007 1.7154 0.8184 0 5
-4.3216 -11.5585 0.7652 0.8027 0 9
-4.1424 -11.7957 0.7752 0.7923 0 9
-3.9584 -12.0393 0.7859 0.7816 0 9
-3.6340 -12.7573 0.8225 0.7633 0 9
-3.3217 -12.6172 0.8091 0.7761 0 9
-1.7235 -14.6748 0.9162 0.7166 0 9
-1.4030 -14.4426 0.8998 0.8133 0 9
0.7210 -6.9142 0.4311 0.5198 21 5
0.8480 -6.8051 0.4252 0.9975 21 18
0.9843 -6.7857 0.4252 0.9996 21 18
4.3277 -20.8904 1.3229 0.1104 0 1
4.5372 -19.8836 1.2647 0.1179 0 1
4.9244 -19.7445 1.2619 0.9844 0 1
5.3395 -19.7145 1.2665 0.9807 0 1
5.7578 -19.6841 1.2718 0.9767 0 1
6.1796 -19.6535 1.2775 0.9723 0 1
6.6057 -19.6227 1.2839 0.9673 0 1
6.9873 -19.4559 1.2819 0.2978 0 1
7.2536 -18.9900 1.2606 0.8129 0 1
7.5646 -18.6712 1.2492 0.9206 0 1
7.9221 -18.4786 1.2467 0.9443 0 1
8.3525 -18.4508 1.2559 0.9298 0 1
8.7893 -18.4225 1.2657 0.9304 0 1
9.4121 -18.7499 1.3009 0.4526 0 1
10.2956 -19.5224 1.3686 0.9013 0 1
10.9296 -19.7531 1.3999 0.8950 0 1
11.4398 -19.7297 1.4142 0.8860 0 1
11.9602 -19.7047 1.4294 0.8779 0 1
12.3402 -19.4400 1.4278 0.8639 0 1
12.7532 -19.2264 1.4307 0.8592 0 1
13.2645 -19.1514 1.4446 0.8614 0 1
13.8120 -19.1104 1.4621 0.8510 0 1
13.7769 -18.2776 1.4193 0.1139 0 0
13.6078 -17.3189 1.3658 0.1152 0 0
13.4653 -16.4469 1.3181 0.1244 0 0
13.3814 -15.6910 1.2788 0.1283 0 0
13.1939 -14.8565 1.2321 0.0985 0 0
12.9940 -14.0528 1.1868 0.1065 0 0
12.8577 -13.3573 1.1497 0.1656 0 0
12.9306 -12.9043 1.1328 0.1681 0 0
11.5942 -5.2197 0.5014 0.2201 0 7
11.5768 -4.9348 0.4962 0.2224 0 7
11.5605 -4.6560 0.4914 0.2246 0 7
11.5453 -4.3826 0.4869 0.2267 0 7
11.5312 -4.1144 0.4828 0.2286 0 7
11.5180 -3.8508 0.4789 0.2305 0 7
11.5058 -3.5917 0.4753 0.2322 0 7
11.4946 -3.3365 0.4719 0.2339 0 7
11.4842 -3.0849 0.4689 0.2354 0 7
11.4747 -2.8367 0.4661 0.2368 0 7
11.4660 -2.5915 0.4635 0.2381 0 7
11.4582 -2.3490 0.4612 0.2393 0 7
11.4511 -2.1090 0.4591 0.2404 0 7
11.4448 -1.8711 0.4573 0.2414 0 7
11.4394 -1.6352 0.4557 0.2422 0 7
11.4346 -1.4009 0.4542 0.2430 0 7
11.4306 -1.1681 0.4531 0.2436 0 7
11.4273 -0.9364 0.4521 0.2441 0 7
11.4247 -0.7056 0.4513 0.2445 0 7
11.4229 -0.4756 0.4508 0.2448 0 7
11.4218 -0.2461 0.4505 0.2450 0 7
5.6643 -0.0083 0.2233 0.8892 184 4
5.7209 0.1065 0.2256 0.3489 184 4
11.4227 0.4421 0.4508 0.2449 0 7
11.4244 0.6720 0.4512 0.2446 0 7
11.4269 0.9027 0.4520 0.2442 0 7
11.4300 1.1342 0.4529 0.2437 0 7
11.4339 1.3669 0.4541 0.2431 0 7
11.4386 1.6009 0.4554 0.2423 0 7
11.4440 1.8366 0.4570 0.2415 0 7
11.4501 2.0741 0.4588 0.2405 0 7
11.4571 2.3138 0.4609 0.2395 0 7
11.4648 2.5559 0.4632 0.2383 0 7
11.0504 2.6975 0.4485 0.2370 0 8
11.0595 2.9361 0.4512 0.2356 0 8
11.0694 3.1779 0.4541 0.2341 0 8
10.7042 3.3071 0.4418 0.2325 0 19
11.0541 3.6598 0.4591 0.2307 0 19
10.7317 3.7937 0.4488 0.3379 0 19
11.1178 4.1831 0.4684 0.2269 0 8
8.3663 3.3411 0.3552 0.3020 0 9
11.1477 4.7134 0.4772 0.2227 0 8
11.1644 4.9869 0.4821 0.2205 0 8
11.1821 5.2666 0.4874 0.2181 0 8
11.2010 5.5528 0.4930 0.2156 0 8
11.2212 5.8463 0.4989 0.2131 0 8
11.2427 6.1475 0.5053 0.2104 0 8
11.2655 6.4571 0.5120 0.2076 0 8
11.3989 6.8411 0.5242 0.2236 0 0
11.4115 7.1641 0.5313 0.2036 0 0
11.4338 7.5023 0.5392 0.2006 0 0
11.4578 7.8514 0.5477 0.1975 0 0
11.4834 8.2125 0.5567 0.1943 0 0
11.5108 8.5865 0.5662 0.1910 0 0
11.5401 8.9745 0.5764 0.1876 0 0
11.5715 9.3775 0.5873 0.1842 0 0
11.6050 9.7971 0.5988 0.1806 0 0
11.6409 10.2346 0.6112 0.1770 0 0
11.6793 10.6916 0.6243 0.1732 0 0
11.6999 11.1503 0.6373 0.1888 0 0
11.6858 11.5932 0.6491 0.1854 0 0
11.6720 12.0540 0.6616 0.1819 0 0
11.6587 12.5342 0.6750 0.1783 0 0
11.6458 13.0355 0.6892 0.1772 0 0
11.6258 13.5511 0.7040 0.1735 0 0
11.6062 14.0909 0.7198 0.1697 0 0
11.5866 14.6570 0.7367 0.1658 0 0
11.5962 15.2904 0.7567 0.1360 0 0
11.6739 16.0521 0.7826 0.1315 0 0
11.7585 16.8702 0.8108 0.1269 0 0
11.8622 17.7689 0.8424 0.1193 0 0
11.9807 18.7509 0.8774 0.1145 0 0
12.1112 19.8211 0.9159 0.1097 0 0
12.2555 20.9931 0.9585 0.1048 0 0
12.4159 22.2834 1.0058 0.0999 0 0
12.5950 23.7121 1.0587 0.0949 0 0
12.7962 25.3043 1.1181 0.0899 0 0
13.0237 27.0914 1.1853 0.0848 0 0
13.3126 29.1780 1.2646 0.0815 0 0
12.6213 29.2008 1.2544 0.8849 0 11
11.8959 29.1138 1.2401 0.8940 0 11
11.2131 29.0977 1.2296 0.9027 0 11
10.5166 29.0127 1.2169 0.9111 0 11
9.8574 28.9983 1.2077 0.9191 0 11
9.1860 28.9153 1.1963 0.9267 0 11
8.5291 28.8416 1.1860 0.9340 0 11
12.9448 47.2408 1.9314 0.9859 0 9
-2.9604 7.9898 0.3360 0.1717 0 9
-2.9504 7.4972 0.3177 0.5750 0 9
-3.1909 7.6537 0.3270 0.5587 0 9
-4.6236 9.9461 0.4325 0.9971 0 9
-4.8169 9.8404 0.4320 0.9982 0 9
-5.0099 9.7348 0.4317 0.9989 0 9
-5.2027 9.6294 0.4316 0.9992 0 9
-5.8315 9.8282 0.4506 0.7789 0 9
-6.1008 9.8270 0.4561 0.7696 0 9
-6.3767 9.8258 0.4619 0.7599 0 9
-12.9432 14.2824 0.7600 0.7260 0 5
-14.5001 14.1825 0.7998 0.7681 0 5
-33.6904 31.6545 1.8228 0.4407 0 9
-33.5092 30.2411 1.7798 0.0882 0 9
-34.2202 29.6583 1.7856 0.0880 0 9
-37.3811 31.1063 1.9176 0.4308 0 9
-33.3967 26.6743 1.6853 0.4252 0 9
-32.7090 25.0665 1.6249 0.5246 0 9
-33.0349 24.2795 1.6166 0.2442 0 9
-33.5535 23.6381 1.6184 0.0461 0 9
-35.3598 22.8438 1.6599 0.0472 0 9
-36.6680 21.6539 1.6791 0.2078 0 9
-30.4913 17.1905 1.3802 0.3279 0 9
-30.3044 16.2924 1.3567 0.3336 0 9
-30.0937 15.4086 1.3331 0.2468 0 9
-29.6590 14.4421 1.3008 0.2529 0 9
-30.0587 13.8973 1.3058 0.3798 0 9
-30.6342 13.4238 1.3188 0.1117 0 9
-8.7431 3.6237 0.3732 0.9492 0 5
-31.8899 12.4735 1.3502 0.4335 0 9
-45.4428 15.7023 1.8958 0.1071 0 9
-45.5879 14.7351 1.8891 0.2988 0 9
-46.9678 14.1463 1.9341 0.2776 0 9
-47.9355 13.3944 1.9625 0.3136 0 9
-26.1012 6.7316 1.0629 0.2020 0 9
-29.5994 7.0033 1.1994 0.2178 0 9
-29.4408 6.3445 1.1875 0.1598 0 9
-30.2668 5.8894 1.2158 0.3021 0 9
-36.1029 6.2757 1.4449 0.4206 0 9
-26.6165 4.0781 1.0618 0.0529 0 9
-27.3072 3.6245 1.0862 0.1489 0 9
-27.9366 3.1388 1.1085 0.1459 0 9
-36.0856 3.3224 1.4289 0.3598 0 9
-35.5954 2.5579 1.4072 0.3653 0 9
-34.7553 1.7972 1.3722 0.0919 0 9
-35.2557 1.1142 1.3908 0.3762 0 9
-35.7158 0.4114 1.4084 0.3661 0 9
-36.6074 -0.3134 1.4435 0.1624 0 9
-36.1389 -1.0351 1.4256 0.3637 0 9
-31.7826 -1.5493 1.2547 0.1829 0 9
-32.5142 -2.2399 1.2851 0.1925 0 9
-31.4823 -2.8047 1.2463 0.5057 0 9
-31.6027 -3.4562 1.2535 0.5028 0 9
-31.6467 -4.1053 1.2583 0.4879 0 9
-34.8312 -5.2313 1.3888 0.0775 0 9
-36.6008 -6.2508 1.4641 0.0310 0 9
-34.1440 -6.5391 1.3708 0.1840 0 9
-34.3019 -7.2860 1.3827 0.3302 0 9
-34.3671 -8.0241 1.3916 0.3281 0 9
-33.8392 -8.6206 1.3769 0.1976 0 9
-35.8937 -11.4846 1.4860 0.1352 0 9
-35.9126 -12.2906 1.4967 0.1457 0 9
-27.9152 -10.1839 1.1717 0.9122 0 9
-37.3918 -14.4982 1.5813 0.3915 0 9
-38.7174 -15.9134 1.6506 0.3036 0 9
-34.2174 -16.5368 1.4985 0.3289 0 9
-32.9888 -16.7681 1.4592 0.2594 0 9
-33.0161 -17.6246 1.4757 0.2342 0 9
-33.4596 -18.7339 1.5121 0.2285 0 9
-34.5471 -20.2642 1.5792 0.1882 0 9
-38.6769 -23.7426 1.7895 0.3414 0 9
-29.9804 -19.2432 1.4047 0.1965 0 9
-29.9002 -20.0504 1.4195 0.3250 0 9
-29.3985 -20.5812 1.4150 0.4033 0 9
-26.1337 -19.0886 1.2761 0.2984 0 9
-26.1635 -19.9280 1.2968 0.2968 0 9
-24.7639 -19.6597 1.2468 0.5238 0 9
-24.2845 -20.0868 1.2427 0.2844 0 9
-23.9318 -20.6179 1.2456 0.5048 0 9
-23.3696 -20.9654 1.2380 0.3338 0 9
-27.8669 -26.0283 1.5036 0.2074 0 9
-28.6931 -27.8993 1.5781 0.6202 0 9
-27.3122 -27.6445 1.5323 0.3662 0 9
-27.5952 -29.0758 1.5806 0.2859 0 9
-27.6579 -30.3390 1.6188 0.3116 0 9
-29.5731 -33.7774 1.7702 0.3871 0 9
-30.3231 -37.5758 1.9039 0.3448 0 9
-28.5096 -36.8171 1.8361 0.1347 0 9
-28.4597 -38.3174 1.8821 0.1314 0 9
-27.7676 -38.9971 1.8876 0.4563 0 9
-25.5678 -39.1431 1.8436 0.0425 0 9
-1.4094 -14.5091 0.5748 0.7272 0 9
0.7189 -6.8945 0.2733 0.9993 21 5
0.8484 -6.8082 0.2705 0.9982 21 18
0.9854 -6.7933 0.2707 0.9996 21 18
3.2911 -19.8721 0.7942 0.9956 0 1
3.6969 -19.8428 0.7959 0.9935 0 1
4.1046 -19.8134 0.7979 0.9911 0 1
4.5144 -19.7837 0.8001 0.9883 0 1
4.9539 -19.8626 0.8072 0.9850 0 1
5.3714 -19.8324 0.8102 0.9814 0 1
5.7922 -19.8020 0.8135 0.9773 0 1
6.2167 -19.7713 0.8172 0.9729 0 1
6.6088 -19.6323 0.8168 0.9681 0 1
7.0396 -19.6013 0.8212 0.9627 0 1
7.3017 -19.1159 0.8069 0.8082 0 1
7.6021 -18.7636 0.7983 0.9171 0 1
7.9254 -18.4863 0.7931 0.9894 0 1
8.3557 -18.4579 0.7989 0.9305 0 1
8.7940 -18.4323 0.8053 0.9310 0 1
9.2876 -18.5017 0.8163 0.4569 0 1
10.2097 -19.3593 0.8630 0.9082 0 1
10.9328 -19.7589 0.8904 0.8958 0 1
11.4432 -19.7356 0.8995 0.8867 0 1
11.9645 -19.7117 0.9092 0.8773 0 1
11.9624 -18.8448 0.8801 0.1138 0 0
11.8425 -17.8536 0.8448 0.1186 0 0
11.6349 -16.7985 0.8057 0.1042 0 0
11.5276 -15.9499 0.7760 0.1082 0 0
11.3870 -15.1070 0.7459 0.0960 0 0
11.1993 -14.2535 0.7148 0.0990 0 0
11.0431 -13.4883 0.6874 0.2328 0 0
11.2071 -13.1414 0.6810 0.2350 0 0
11.3429 -12.7723 0.6735 0.2254 0 0
11.4067 -12.3362 0.6625 0.2292 0 0
11.4692 -11.9148 0.6521 0.2328 0 0
11.5305 -11.5070 0.6423 0.2364 0 0
10.5582 -4.7533 0.1956 0.2419 0 7
10.5520 -4.4980 0.1938 0.2442 0 7
10.5462 -4.2474 0.1921 0.2463 0 7
10.5408 -4.0013 0.1904 0.2484 0 7
10.5358 -3.7592 0.1890 0.2504 0 7
10.5311 -3.5209 0.1876 0.2522 0 7
10.5266 -3.2860 0.1863 0.2540 0 7
10.5226 -3.0543 0.1851 0.2556 0 7
10.5189 -2.8256 0.1840 0.2571 0 7
10.5154 -2.5996 0.1830 0.2586 0 7
10.5123 -2.3759 0.1820 0.2599 0 7
10.5095 -2.1545 0.1812 0.2611 0 7
10.5070 -1.9351 0.1805 0.2622 0 7
10.5047 -1.7174 0.1798 0.2631 0 7
10.5028 -1.5013 0.1792 0.2640 0 7
10.5010 -1.2866 0.1787 0.2647 0 7
10.4996 -1.0729 0.1783 0.2654 0 7
10.4984 -0.8603 0.1779 0.2659 0 7
10.4974 -0.6484 0.1777 0.2663 0 7
6.3453 -0.2642 0.1073 0.2736 184 10
5.5754 -0.1201 0.0942 0.8523 184 4
5.5342 -0.0081 0.0935 0.6184 184 4
5.5801 0.1039 0.0943 0.3469 184 4
5.5520 0.2149 0.0939 0.8173 184 4
10.4974 0.6175 0.1776 0.2663 0 7
10.4982 0.8293 0.1779 0.2660 0 7
10.4994 1.0418 0.1782 0.2655 0 7
10.5008 1.2553 0.1786 0.2648 0 7
10.5024 1.4699 0.1791 0.2641 0 7
10.5044 1.6858 0.1797 0.2633 0 7
10.5066 1.9032 0.1804 0.2623 0 7
10.5091 2.1224 0.1811 0.2612 0 7
10.5119 2.3435 0.1819 0.2601 0 7
10.3338 2.5225 0.1797 0.1663 0 8
10.1307 2.6895 0.1771 0.2574 0 8
10.1342 2.9094 0.1781 0.2558 0 8
10.1381 3.1321 0.1792 0.2542 0 8
9.7982 3.2440 0.1743 0.2525 0 19
10.1123 3.5747 0.1812 0.2507 0 19
9.8729 3.7147 0.1782 0.2835 0 19
8.3531 3.3358 0.1519 0.3027 0 9
10.1623 4.2967 0.1864 0.2445 0 8
10.1682 4.5419 0.1881 0.2422 0 8
10.1745 4.7920 0.1900 0.2399 0 8
10.1811 5.0472 0.1919 0.2374 0 8
10.1883 5.3082 0.1941 0.2348 0 8
10.1959 5.5751 0.1963 0.2321 0 8
10.2039 5.8486 0.1987 0.2294 0 8
10.2124 6.1291 0.2012 0.2265 0 8
10.2215 6.4170 0.2039 0.2235 0 8
10.3278 6.7765 0.2086 0.2445 0 0
10.3280 7.0773 0.2115 0.2192 0 0
10.3344 7.3908 0.2146 0.2160 0 0
10.3412 7.7141 0.2179 0.2127 0 0
10.3487 8.0479 0.2214 0.2094 0 0
10.3566 8.3930 0.2252 0.2059 0 0
10.3652 8.7505 0.2291 0.2023 0 0
10.3745 9.1211 0.2333 0.1987 0 0
10.3844 9.5062 0.2378 0.1950 0 0
10.3950 9.9067 0.2425 0.1911 0 0
10.4065 10.3241 0.2476 0.1872 0 0
10.4189 10.7599 0.2530 0.1833 0 0
10.3986 11.1794 0.2579 0.2000 0 0
10.3635 11.6001 0.2627 0.1963 0 0
10.3273 12.0375 0.2679 0.1925 0 0
10.2901 12.4930 0.2734 0.1887 0 0
10.2510 12.9675 0.2792 0.1875 0 0
10.2049 13.4558 0.2853 0.1836 0 0
10.1571 13.9664 0.2917 0.1795 0 0
10.1075 14.5015 0.2986 0.1754 0 0
10.0718 15.0870 0.3064 0.1440 0 0
10.0972 15.8031 0.3168 0.1393 0 0
10.1249 16.5704 0.3280 0.1345 0 0
10.1615 17.4061 0.3404 0.1265 0 0
10.2083 18.3213 0.3543 0.1216 0 0
10.2597 19.3155 0.3694 0.1166 0 0
10.3162 20.4003 0.3861 0.1115 0 0
10.3789 21.5897 0.4046 0.1064 0 0
10.4486 22.9008 0.4252 0.1013 0 0
10.5367 24.3783 0.4486 0.0978 0 0
10.6343 26.0265 0.4749 0.0891 0 0
10.7596 27.9210 0.5054 0.0837 0 0
10.5236 29.0322 0.5217 0.9122 0 11
9.8522 28.9831 0.5171 0.9202 0 11
9.1922 28.9349 0.5129 0.9278 0 11
8.5324 28.8529 0.5083 0.9351 0 11
7.9030 28.8408 0.5052 0.9420 0 11
7.2722 28.7947 0.5017 0.9485 0 11
6.6498 28.7493 0.4985 0.9546 0 11
9.9032 47.1025 0.8130 0.3679 0 9
-2.8536 7.7016 0.1387 0.1783 0 9
-2.9680 7.5420 0.1369 0.5720 0 9
-3.2104 7.7005 0.1409 0.6243 0 9
-5.0100 9.7350 0.1849 0.9996 0 9
-5.2028 9.6296 0.1849 0.9999 0 9
-6.0305 9.7139 0.1931 0.7790 0 9
-31.8518 36.5978 0.8195 0.1561 0 9
-32.9196 36.3258 0.8281 0.2460 0 9
-30.3733 32.1931 0.7476 0.3394 0 9
-31.3149 31.8840 0.7549 0.3361 0 9
-32.2397 31.5337 0.7618 0.4213 0 9
-32.7187 30.7415 0.7584 0.2841 0 9
-15.7412 14.2060 0.3582 0.9872 0 5
-31.9033 27.6502 0.7131 0.0663 0 9
-37.9728 31.5986 0.8345 0.4089 0 9
-31.2361 24.9487 0.6753 0.0503 0 9
-33.3778 25.5790 0.7103 0.3543 0 9
-32.9331 24.2047 0.6904 0.3892 0 9
-34.0320 23.9752 0.7032 0.4590 0 9
-30.0897 16.9641 0.5835 0.2407 0 9
-30.4681 16.3804 0.5843 0.2404 0 9
-30.7410 15.7400 0.5834 0.3751 0 9
-31.0004 15.0953 0.5824 0.3757 0 9
-31.0024 14.3337 0.5769 0.3207 0 9
-28.6785 12.5668 0.5289 0.1565 0 9
-8.7044 3.6077 0.1592 0.7383 0 5
-30.5316 11.9422 0.5538 0.4530 0 9
-45.1571 16.6256 0.8128 0.4439 0 9
-44.2641 15.2951 0.7911 0.2252 0 9
-45.3994 14.6741 0.8059 0.3753 0 9
-28.4343 8.5642 0.5016 0.1186 0 9
-27.4835 7.6796 0.4820 0.1234 0 9
-29.5115 7.6111 0.5148 0.3638 0 9
-29.5954 7.0023 0.5137 0.3646 0 9
-26.5097 5.7129 0.4581 0.1260 0 9
-27.8113 5.4116 0.4786 0.1944 0 9
-28.5972 4.9709 0.4903 0.1897 0 9
-29.4239 4.5082 0.5028 0.1850 0 9
-32.8081 4.3546 0.5590 0.0778 0 9
-35.3661 3.9736 0.6012 0.0583 0 9
-36.3764 3.3491 0.6170 0.2270 0 9
-37.5987 2.7018 0.6367 0.3434 0 9
-35.6028 1.8411 0.6022 0.4455 0 9
-35.6337 1.1261 0.6022 0.4158 0 9
-33.3035 0.3835 0.5626 0.0784 0 9
-33.7211 -0.2886 0.5696 0.0774 0 9
-36.3575 -1.0413 0.6144 0.2185 0 9
-35.5356 -1.7322 0.6010 0.1065 0 9
-32.8207 -2.2610 0.5557 0.0422 0 9
-34.3414 -3.0594 0.5823 0.0718 0 9
-30.4171 -3.3265 0.5169 0.2459 0 9
-30.0315 -3.8958 0.5115 0.2485 0 9
-29.6544 -4.4538 0.5065 0.2509 0 9
-29.2171 -4.9898 0.5006 0.2278 0 9
-35.5503 -7.5512 0.6139 0.2278 0 9
-34.0232 -7.9438 0.5902 0.3345 0 9
-33.8697 -8.6283 0.5904 0.1824 0 9
-34.3465 -9.4880 0.6019 0.3280 0 9
-34.5143 -10.2843 0.6083 0.3245 0 9
-36.7260 -11.7509 0.6513 0.3461 0 9
-36.6633 -12.5475 0.6546 0.3843 0 9
-27.7539 -10.1251 0.4990 0.9181 0 9
-36.9634 -14.3321 0.6696 0.2413 0 9
-36.5390 -15.0180 0.6673 0.4283 0 9
-36.7978 -15.9952 0.6778 0.3169 0 9
-32.5678 -14.9407 0.6052 0.2147 0 9
-33.1399 -16.0160 0.6217 0.2395 0 9
-32.1681 -16.3508 0.6095 0.0999 0 9
-32.3262 -17.2563 0.6190 0.2405 0 9
-31.7842 -17.7958 0.6153 0.2162 0 9
-38.1994 -23.4495 0.7571 0.3529 0 9
-36.6772 -23.5416 0.7362 0.2183 0 9
-29.5616 -19.8233 0.6012 0.3268 0 9
-35.8187 -25.0760 0.7386 0.2147 0 9
-24.4476 -17.8570 0.5114 0.2286 0 9
-24.2329 -18.4575 0.5146 0.2820 0 9
-23.8719 -18.9516 0.5149 0.2818 0 9
-23.5108 -19.4470 0.5154 0.2816 0 9
-23.1539 -19.9478 0.5163 0.2298 0 9
-21.6451 -19.4183 0.4912 0.0520 0 9
-28.3527 -26.4821 0.6554 0.5149 0 9
-27.5413 -26.7793 0.6489 0.3707 0 9
-26.8858 -27.2130 0.6462 0.4705 0 9
-25.8603 -27.2479 0.6346 0.2564 0 9
-24.6547 -27.0446 0.6182 0.1672 0 9
-25.8290 -29.5011 0.6624 0.2289 0 9
-25.8624 -30.7639 0.6789 0.1212 0 9
-27.2020 -36.6240 0.7706 0.3322 0 9
-27.2860 -38.3207 0.7946 0.2821 0 9
-26.5255 -38.8815 0.7950 0.2820 0 9
-25.6852 -39.3226 0.7933 0.4791 0 9
-24.3920 -39.0321 0.7774 0.2759 0 9
-22.8919 -38.3226 0.7540 0.2914 0 9
-1.4169 -14.5864 0.2475 0.7238 0 9
-1.1308 -14.7019 0.2491 0.2224 0 9
1.6727 -19.9062 0.3374 0.9999 0 1
0.7214 -6.9175 0.1175 0.7275 21 5
2.4848 -19.9399 0.3394 0.9986 0 1
0.9866 -6.8019 0.1161 0.9971 21 18
1.1370 -6.8658 0.1175 0.1816 21 18
3.7190 -19.9615 0.3430 0.9937 0 1
4.1291 -19.9319 0.3438 0.9913 0 1
4.5415 -19.9022 0.3448 0.9884 0 1
4.9563 -19.8722 0.3460 0.9852 0 1
5.3740 -19.8421 0.3472 0.9815 0 1
5.7951 -19.8117 0.3487 0.9775 0 1
6.2198 -19.7810 0.3503 0.9731 0 1
6.6485 -19.7501 0.3520 0.9682 0 1
7.0430 -19.6109 0.3520 0.9629 0 1
7.3328 -19.1975 0.3471 0.8055 0 1
7.6233 -18.8160 0.3429 0.9132 0 1
7.9512 -18.5465 0.3409 0.9869 0 1
8.3403 -18.4241 0.3416 0.9383 0 1
8.7782 -18.3991 0.3444 0.9233 0 1
9.2549 -18.4366 0.3485 0.6719 0 1
9.8479 -18.6732 0.3566 0.2534 0 1
10.1866 -18.4104 0.3554 0.1224 0 0
10.1102 -17.4364 0.3404 0.0960 0 0
9.8985 -16.3080 0.3222 0.1014 0 0
9.7610 -15.3769 0.3076 0.1407 0 0
9.6745 -14.5851 0.2956 0.1379 0 0
9.5893 -13.8451 0.2845 0.1433 0 0
9.6486 -13.3500 0.2782 0.2582 0 0
9.7972 -12.9979 0.2749 0.2698 0 0
9.9474 -12.6602 0.2720 0.2522 0 0
10.1081 -12.3463 0.2695 0.2545 0 0
10.2662 -12.0382 0.2672 0.2567 0 0
10.3636 -11.6695 0.2636 0.2469 0 0
10.3804 -11.2263 0.2583 0.1973 0 0
10.3650 -10.7677 0.2525 0.2018 0 0
10.3505 -10.3294 0.2470 0.2063 0 0
9.6928 -4.3637 -0.0598 0.2635 0 7
9.6945 -4.1325 -0.0593 0.2658 0 7
9.6961 -3.9051 -0.0589 0.2680 0 7
9.6977 -3.6812 -0.0584 0.2700 0 7
9.6991 -3.4607 -0.0580 0.2720 0 7
9.7004 -3.2432 -0.0576 0.2739 0 7
9.7016 -3.0285 -0.0572 0.2756 0 7
9.7028 -2.8164 -0.0569 0.2773 0 7
9.7038 -2.6067 -0.0566 0.2788 0 7
9.7048 -2.3992 -0.0563 0.2802 0 7
9.7057 -2.1936 -0.0560 0.2815 0 7
9.7065 -1.9899 -0.0558 0.2827 0 7
9.7072 -1.7878 -0.0556 0.2838 0 7
9.7079 -1.5871 -0.0554 0.2848 0 7
9.7084 -1.3878 -0.0552 0.2856 0 7
9.7090 -1.1895 -0.0551 0.2864 0 7
9.7094 -0.9922 -0.0550 0.2870 0 7
9.7097 -0.7957 -0.0549 0.2875 0 7
9.7099 -0.5997 -0.0548 0.2879 0 7
5.6952 -0.2371 -0.0321 0.6132 184 4
5.5195 -0.1189 -0.0311 0.5746 184 4
5.4558 -0.0080 -0.0307 0.8931 184 4
5.4828 0.1020 -0.0309 0.7657 184 4
5.6607 0.2191 -0.0319 0.5572 184 4
9.7100 0.5712 -0.0548 0.2880 0 7
9.7098 0.7670 -0.0548 0.2876 0 7
9.7095 0.9635 -0.0549 0.2871 0 7
9.7090 1.1607 -0.0550 0.2865 0 7
9.7086 1.3588 -0.0552 0.2857 0 7
9.7080 1.5580 -0.0554 0.2849 0 7
9.7074 1.7584 -0.0555 0.2839 0 7
9.7066 1.9603 -0.0558 0.2829 0 7
9.7059 2.1638 -0.0560 0.2817 0 7
9.7050 2.3690 -0.0562 0.2804 0 7
9.3464 2.4813 -0.0544 0.2790 0 8
9.3454 2.6830 -0.0547 0.2775 0 8
9.3443 2.8869 -0.0551 0.2759 0 8
9.3011 3.0794 -0.0552 0.2453 0 19
9.0249 3.1903 -0.0539 0.2723 0 19
9.3087 3.5024 -0.0560 0.2703 0 19
8.3399 3.3305 -0.0506 0.3032 0 9
9.3374 3.9480 -0.0571 0.2661 0 8
9.3357 4.1701 -0.0576 0.2639 0 8
9.3340 4.3961 -0.0581 0.2615 0 8
9.3321 4.6263 -0.0586 0.2590 0 8
9.3301 4.8610 -0.0592 0.2564 0 8
9.3280 5.1006 -0.0599 0.2538 0 8
9.3257 5.3453 -0.0605 0.2510 0 8
9.3234 5.5955 -0.0612 0.2481 0 8
9.3209 5.8516 -0.0620 0.2451 0 8
9.3182 6.1141 -0.0628 0.2421 0 8
9.3154 6.3833 -0.0636 0.2389 0 8
9.3974 6.7207 -0.0651 0.2614 0 0
9.3881 7.0030 -0.0660 0.2344 0 0
9.3808 7.2952 -0.0669 0.2310 0 0
9.3733 7.5961 -0.0679 0.2275 0 0
9.3654 7.9064 -0.0690 0.2240 0 0
9.3572 8.2268 -0.0702 0.2203 0 0
9.3486 8.5580 -0.0714 0.2166 0 0
9.3396 8.9008 -0.0727 0.2128 0 0
9.3302 9.2563 -0.0740 0.2089 0 0
9.3203 9.6253 -0.0755 0.2049 0 0
9.3099 10.0091 -0.0770 0.2008 0 0
9.2990 10.4087 -0.0786 0.1967 0 0
9.2855 10.8232 -0.0803 0.2142 0 0
9.2329 11.2096 -0.0818 0.2103 0 0
9.1783 11.6105 -0.0833 0.2064 0 0
9.1214 12.0271 -0.0850 0.2023 0 0
9.0620 12.4607 -0.0868 0.1982 0 0
9.0001 12.9126 -0.0886 0.1940 0 0
8.9352 13.3846 -0.0906 0.1898 0 0
8.8673 13.8782 -0.0927 0.1854 0 0
8.7917 14.3885 -0.0950 0.1863 0 0
8.7207 14.9383 -0.0974 0.1534 0 0
8.7001 15.6147 -0.1007 0.1484 0 0
8.6780 16.3378 -0.1042 0.1434 0 0
8.6572 17.1195 -0.1080 0.1351 0 0
8.6420 17.9767 -0.1123 0.1299 0 0
8.6254 18.9048 -0.1170 0.1247 0 0
8.6071 19.9139 -0.1222 0.1194 0 0
8.5871 21.0161 -0.1278 0.1141 0 0
8.5649 22.2257 -0.1341 0.1088 0 0
8.5478 23.5817 -0.1412 0.0999 0 0
8.5443 25.1358 -0.1495 0.0838 0 0
8.5498 26.9131 -0.1590 0.0931 0 0
8.5281 28.8380 -0.1693 0.9357 0 11
7.8989 28.8260 -0.1682 0.9426 0 11
7.2598 28.7456 -0.1669 0.9491 0 11
6.6465 28.7347 -0.1660 0.9552 0 11
6.0249 28.6556 -0.1648 0.9609 0 11
5.4248 28.6457 -0.1641 0.9663 0 11
4.8182 28.5676 -0.1631 0.9713 0 11
4.2201 28.4985 -0.1622 0.9758 0 11
5.9791 46.8507 -0.2659 0.5327 0 9
0.8616 32.4260 -0.1826 0.6945 0 20
0.2131 32.8422 -0.1849 0.9154 0 20
-0.4487 33.0341 -0.1860 0.9789 0 20
-2.7683 7.4713 -0.0449 0.3283 0 9
-2.9859 7.5873 -0.0459 0.5686 0 9
-3.2259 7.7379 -0.0472 0.6214 0 9
-11.9790 14.3350 -0.1052 0.9625 0 5
-30.7971 35.3860 -0.2641 0.3535 0 9
-31.5949 34.8641 -0.2649 0.0980 0 9
-32.3533 32.9412 -0.2600 0.2553 0 9
-32.6421 31.9272 -0.2571 0.1000 0 9
-33.4144 31.3951 -0.2581 0.2509 0 9
-32.2532 29.1075 -0.2446 0.1055 0 9
-30.1032 26.0901 -0.2243 0.0165 0 9
-36.0103 29.9656 -0.2637 0.2614 0 9
-32.8294 26.2212 -0.2366 0.2343 0 9
-33.0956 25.3628 -0.2348 0.2302 0 9
-38.6941 28.4389 -0.2704 0.2095 0 9
-33.7713 23.7916 -0.2326 0.2240 0 9
-35.6904 22.0546 -0.2363 0.2844 0 9
-36.0214 21.2721 -0.2356 0.3622 0 9
-36.2801 20.4540 -0.2345 0.4747 0 9
-27.9392 15.0208 -0.1786 0.2622 0 9
-28.0909 14.3832 -0.1777 0.1966 0 9
-30.7245 14.9609 -0.1924 0.1208 0 9
-31.2615 14.4535 -0.1939 0.3013 0 9
-31.3883 13.7543 -0.1930 0.3028 0 9
-31.2590 12.9560 -0.1905 0.1582 0 9
-44.8878 16.5264 -0.2694 0.4377 0 9
-30.9316 10.6882 -0.1843 0.0308 0 9
-45.4431 14.6882 -0.2689 0.4255 0 9
-27.2179 8.1978 -0.1601 0.2459 0 9
-27.3716 7.6483 -0.1600 0.2459 0 9
-27.5250 7.0987 -0.1600 0.2459 0 9
-27.6783 6.5487 -0.1601 0.2457 0 9
-27.8317 5.9977 -0.1603 0.2455 0 9
-27.7743 5.4044 -0.1593 0.1922 0 9
-30.7187 5.3397 -0.1756 0.1394 0 9
-35.8948 5.4997 -0.2045 0.2783 0 9
-27.9860 3.7146 -0.1590 0.0814 0 9
-37.4131 4.2035 -0.2120 0.3629 0 9
-36.4174 3.3530 -0.2059 0.1374 0 9
-32.7295 2.3521 -0.1847 0.1039 0 9
-35.0814 1.8140 -0.1978 0.2266 0 9
-35.0836 1.1087 -0.1976 0.3596 0 9
-35.0775 0.4040 -0.1975 0.4346 0 9
-35.0409 -0.2998 -0.1973 0.4351 0 9
-37.7105 -1.0800 -0.2124 0.4659 0 9
-36.0515 -1.7573 -0.2033 0.1875 0 9
-31.2934 -2.1558 -0.1766 0.3539 0 9
-31.5789 -2.8134 -0.1785 0.3502 0 9
-31.6026 -3.4561 -0.1790 0.1144 0 9
-46.7291 -7.0183 -0.2660 0.2522 0 9
-35.2184 -6.0147 -0.2012 0.1304 0 9
-33.1260 -6.3441 -0.1899 0.0461 0 9
-34.7953 -8.8642 -0.2022 0.7698 0 9
-17.5628 -4.8516 -0.1026 0.3709 0 5
-31.2650 -9.3161 -0.1837 0.2199 0 9
-32.1536 -10.2879 -0.1901 0.1006 0 9
-33.4557 -11.4498 -0.1991 0.0960 0 9
-27.5947 -10.0670 -0.1654 0.9235 0 9
-37.9165 -14.7016 -0.2290 0.3982 0 9
-37.2806 -15.3228 -0.2269 0.4017 0 9
-35.8770 -15.5949 -0.2203 0.2634 0 9
-36.3188 -16.6615 -0.2250 0.1570 0 9
-42.9436 -20.7540 -0.2685 0.1620 0 9
-40.3342 -20.5016 -0.2548 0.2876 0 9
-33.1664 -17.7048 -0.2117 0.8756 0 9
-32.9006 -18.4210 -0.2123 0.1374 0 9
-31.4357 -18.4391 -0.2052 0.0726 0 9
-33.5919 -20.6211 -0.2220 0.1447 0 9
-30.0677 -20.1626 -0.2038 0.2864 0 9
-29.2318 -20.4646 -0.2009 0.2461 0 9
-28.2801 -20.6563 -0.1972 0.2426 0 9
-24.3506 -18.5471 -0.1723 0.1131 0 9
-24.5416 -19.4832 -0.1764 0.2692 0 9
-24.1367 -19.9646 -0.1764 0.3005 0 9
-23.7469 -20.4586 -0.1765 0.2603 0 9
-23.1763 -20.7920 -0.1753 0.1032 0 9
-27.1954 -25.4012 -0.2095 0.1550 0 9
-28.1516 -27.3727 -0.2211 0.2759 0 9
-27.6319 -27.9681 -0.2213 0.2756 0 9
-26.9338 -28.3790 -0.2203 0.3279 0 9
-26.4233 -28.9846 -0.2208 0.2743 0 9
-25.3246 -28.9250 -0.2164 0.1329 0 9
-28.3510 -33.7241 -0.2481 0.5550 0 9
-27.9221 -34.6008 -0.2503 0.2715 0 9
-27.0892 -34.9828 -0.2491 0.1907 0 9
-27.4476 -36.9546 -0.2592 0.4774 0 9
-25.6074 -37.5356 -0.2559 0.4871 0 9
-1.4245 -14.6643 -0.0830 0.7200 0 9
-1.1097 -14.4284 -0.0815 0.8171 0 9
2.8399 -33.7987 -0.1910 0.9567 0 9
2.0833 -19.9784 -0.1131 0.9991 0 1
