ply
format ascii 1.0
element vertex 1357
property float32 x
property float32 y
property float32 z
property float32 CosAngle
property uint32 ObjIdx
property uint32 ObjTag
end_header
-7.0524 3.4878 -3.4289 0.9825 0 5
-15.6724 7.3623 -7.5464 0.1483 0 7
-16.0523 7.1503 -7.6585 0.1461 0 7
-16.4261 6.9244 -7.7689 0.1441 0 7
-16.7928 6.6844 -7.8771 0.1421 0 7
-17.1509 6.4305 -7.9828 0.1402 0 7
-17.3006 6.0927 -7.9938 0.9130 0 8
-17.2858 5.6993 -7.9324 0.8453 0 8
-17.4936 5.3803 -7.9764 0.1351 0 8
-17.7936 5.0832 -8.0650 0.1337 0 8
-18.0794 4.7737 -8.1493 0.1323 0 8
-18.3494 4.4523 -8.2291 0.1310 0 8
-18.6028 4.1194 -8.3038 0.1298 0 8
-18.8381 3.7758 -8.3733 0.1287 0 8
-19.0546 3.4221 -8.4371 0.1278 0 8
-19.2507 3.0590 -8.4951 0.1269 0 8
-19.4258 2.6875 -8.5467 0.1261 0 8
-19.5788 2.3084 -8.5919 0.1255 0 8
-19.7091 1.9227 -8.6304 0.1249 0 8
-19.6917 1.5219 -8.6076 0.4894 0 0
-19.6048 1.1191 -8.5580 0.4922 0 0
-19.5126 0.7205 -8.5097 0.4950 0 0
-19.4152 0.3261 -8.4627 0.4978 0 0
-19.3417 -0.0642 -8.4295 0.5130 0 0
-19.3069 -0.4525 -8.4166 0.5402 0 0
-19.2478 -0.8387 -8.3965 0.5415 0 0
-19.1833 -1.2228 -8.3774 0.5427 0 0
-19.1134 -1.6049 -8.3593 0.5439 0 0
-19.0413 -1.9852 -8.3435 0.5451 0 0
-18.9830 -2.3660 -8.3371 0.5455 0 0
-18.9408 -2.7486 -8.3412 0.4930 0 0
-18.9125 -3.1341 -8.3548 0.4922 0 0
-18.8778 -3.5198 -8.3691 0.4914 0 0
-18.7626 -3.8904 -8.3510 0.1291 0 8
-18.5211 -4.2305 -8.2797 0.1302 0 8
-18.2621 -4.5596 -8.2033 0.1314 0 8
-17.9867 -4.8772 -8.1220 0.1327 0 8
-17.6961 -5.1826 -8.0362 0.1341 0 8
-17.0334 -5.3628 -7.7827 0.9769 0 5
-17.0743 -5.7556 -7.8527 0.1373 0 8
-16.7457 -6.0225 -7.7557 0.1390 0 8
-16.4069 -6.2761 -7.6557 0.1408 0 8
-16.2512 -6.5942 -7.6434 0.9537 0 8
-16.2062 -6.9587 -7.6865 0.9483 0 8
-15.9276 -7.2218 -7.6217 0.1468 0 7
-15.5458 -7.4292 -7.5091 0.1490 0 7
-15.1596 -7.6229 -7.3950 0.1513 0 7
-14.7697 -7.8029 -7.2800 0.1537 0 7
-14.3775 -7.9696 -7.1642 0.1562 0 7
-13.9837 -8.1232 -7.0480 0.1588 0 7
-13.5893 -8.2640 -6.9316 0.1615 0 7
-13.1951 -8.3923 -6.8152 0.1642 0 7
-12.8017 -8.5086 -6.6992 0.1671 0 7
-12.4102 -8.6131 -6.5836 0.1700 0 7
-12.0210 -8.7064 -6.4687 0.1730 0 7
-11.6347 -8.7887 -6.3547 0.1761 0 7
-11.2519 -8.8605 -6.2417 0.1793 0 7
-10.8731 -8.9223 -6.1299 0.1826 0 7
-10.4988 -8.9745 -6.0195 0.1859 0 7
-10.1293 -9.0174 -5.9104 0.1894 0 7
-9.7649 -9.0515 -5.8028 0.1929 0 7
-9.4060 -9.0773 -5.6969 0.1965 0 7
-9.0528 -9.0951 -5.5926 0.2001 0 7
-8.7055 -9.1053 -5.4901 0.2038 0 7
-8.3644 -9.1084 -5.3895 0.2077 0 7
-8.0295 -9.1047 -5.2906 0.2115 0 7
-7.7010 -9.0946 -5.1937 0.2155 0 7
-7.3790 -9.0784 -5.0986 0.2195 0 7
-7.0635 -9.0565 -5.0055 0.2236 0 7
-6.7546 -9.0292 -4.9143 0.2277 0 7
-6.2145 -8.6653 -4.6473 0.2319 0 8
-5.9298 -8.6296 -4.5632 0.2362 0 8
-5.6514 -8.5896 -4.4811 0.2405 0 8
-5.3794 -8.5456 -4.4008 0.2449 0 8
-5.1137 -8.4978 -4.3223 0.2494 0 8
-4.8541 -8.4466 -4.2457 0.2539 0 8
-4.6008 -8.3921 -4.1710 0.2584 0 8
-4.3535 -8.3345 -4.0980 0.2630 0 8
-4.1124 -8.2741 -4.0268 0.2677 0 8
-3.8771 -8.2111 -3.9574 0.2724 0 8
-3.6476 -8.1456 -3.8897 0.2771 0 8
-3.4240 -8.0778 -3.8237 0.2819 0 8
-3.2059 -8.0079 -3.7593 0.2867 0 8
-2.9935 -7.9362 -3.6966 0.2916 0 8
-2.7865 -7.8626 -3.6355 0.2965 0 8
-2.5847 -7.7874 -3.5759 0.3014 0 8
-2.3882 -7.7107 -3.5179 0.3064 0 8
-2.1967 -7.6326 -3.4614 0.3114 0 8
-2.0103 -7.5532 -3.4064 0.3164 0 8
-1.8288 -7.4727 -3.3528 0.3215 0 8
-1.6520 -7.3911 -3.3007 0.3266 0 8
-1.4799 -7.3086 -3.2499 0.3317 0 8
-1.3124 -7.2252 -3.2004 0.3368 0 8
-1.1492 -7.1411 -3.1522 0.3419 0 8
-0.9904 -7.0563 -3.1054 0.3471 0 8
-0.8358 -6.9708 -3.0598 0.3523 0 8
-0.6854 -6.8848 -3.0154 0.3575 0 8
-0.5389 -6.7983 -2.9721 0.3627 0 8
-0.3967 -6.7170 -2.9325 0.9617 0 8
-0.2577 -6.6242 -2.8891 0.3731 0 8
-0.1227 -6.5366 -2.8493 0.3783 0 8
0.0087 -6.4766 -2.8226 0.9705 0 8
0.1386 -6.4579 -2.8151 0.9731 0 8
0.2680 -6.4439 -2.8108 0.9197 0 8
0.3965 -6.4209 -2.8037 0.3992 0 7
0.5189 -6.3291 -2.7676 0.4044 0 7
0.6378 -6.2372 -2.7325 0.4096 0 7
0.7536 -6.1453 -2.6983 0.4148 0 7
0.8663 -6.0534 -2.6650 0.4199 0 7
0.9758 -5.9615 -2.6327 0.4251 0 7
1.0824 -5.8697 -2.6012 0.4302 0 7
1.1862 -5.7779 -2.5706 0.4354 0 7
1.2871 -5.6863 -2.5408 0.4405 0 7
1.3852 -5.5947 -2.5119 0.4455 0 7
1.4806 -5.5033 -2.4837 0.4506 0 7
1.5734 -5.4121 -2.4563 0.4556 0 7
1.6637 -5.3210 -2.4297 0.4606 0 7
1.7515 -5.2301 -2.4038 0.4656 0 7
1.8369 -5.1393 -2.3786 0.4705 0 7
1.9199 -5.0488 -2.3541 0.4754 0 7
2.0005 -4.9585 -2.3302 0.4803 0 7
2.0790 -4.8684 -2.3071 0.4851 0 7
2.1553 -4.7785 -2.2846 0.4899 0 7
2.2294 -4.6889 -2.2627 0.4946 0 7
2.3014 -4.5995 -2.2414 0.4993 0 7
2.3714 -4.5103 -2.2208 0.5039 0 7
2.4394 -4.4214 -2.2007 0.5085 0 7
2.5054 -4.3327 -2.1812 0.5131 0 7
2.5696 -4.2443 -2.1623 0.5176 0 7
2.6318 -4.1561 -2.1439 0.5220 0 7
2.6923 -4.0682 -2.1261 0.5264 0 7
2.7510 -3.9805 -2.1088 0.5307 0 7
2.8079 -3.8931 -2.0920 0.5350 0 7
2.8632 -3.8060 -2.0756 0.5392 0 7
2.9168 -3.7191 -2.0598 0.5433 0 7
2.9687 -3.6324 -2.0445 0.5474 0 7
3.0190 -3.5460 -2.0296 0.5514 0 7
3.0679 -3.4599 -2.0152 0.5553 0 7
3.1151 -3.3740 -2.0013 0.5592 0 7
3.1608 -3.2883 -1.9878 0.5630 0 7
3.2051 -3.2029 -1.9747 0.5667 0 7
3.2479 -3.1177 -1.9621 0.5704 0 7
3.2894 -3.0327 -1.9498 0.5740 0 7
3.3294 -2.9480 -1.9380 0.5775 0 7
3.3680 -2.8635 -1.9266 0.5809 0 7
3.4054 -2.7792 -1.9156 0.5842 0 7
3.4414 -2.6951 -1.9050 0.5875 0 7
3.4761 -2.6112 -1.8947 0.5907 0 7
3.5095 -2.5275 -1.8849 0.5938 0 7
3.5418 -2.4441 -1.8754 0.5968 0 7
3.5727 -2.3608 -1.8662 0.5997 0 7
3.6024 -2.2777 -1.8575 0.6025 0 7
3.6309 -2.1948 -1.8490 0.6053 0 7
3.6583 -2.1120 -1.8410 0.6079 0 7
3.6845 -2.0295 -1.8332 0.6105 0 7
3.7095 -1.9471 -1.8258 0.6130 0 7
3.7335 -1.8648 -1.8188 0.6153 0 7
3.7563 -1.7828 -1.8121 0.6176 0 7
3.8440 0.3381 -1.7862 0.6588 0 7
3.8394 0.4157 -1.7875 0.6583 0 7
3.8337 0.4933 -1.7892 0.6577 0 7
3.8272 0.5709 -1.7911 0.6570 0 7
3.8197 0.6485 -1.7933 0.6561 0 7
3.8112 0.7262 -1.7958 0.6552 0 7
3.8017 0.8040 -1.7986 0.6542 0 7
3.7912 0.8818 -1.8017 0.6531 0 7
3.7798 0.9597 -1.8051 0.6519 0 7
3.7674 1.0376 -1.8088 0.6506 0 7
3.7540 1.1156 -1.8127 0.6491 0 7
3.7395 1.1936 -1.8170 0.6476 0 7
3.7241 1.2718 -1.8216 0.6460 0 7
3.7076 1.3500 -1.8264 0.6443 0 7
3.6901 1.4283 -1.8316 0.6425 0 7
3.6716 1.5067 -1.8371 0.6405 0 7
3.6520 1.5853 -1.8428 0.6385 0 7
3.6314 1.6639 -1.8489 0.6364 0 7
3.6096 1.7426 -1.8553 0.6342 0 7
3.5868 1.8214 -1.8621 0.6319 0 7
3.5629 1.9004 -1.8691 0.6295 0 7
3.4414 1.9254 -1.8253 0.5175 0 8
3.3825 1.9829 -1.8149 0.6245 0 8
3.3562 2.0592 -1.8226 0.6218 0 8
3.3288 2.1357 -1.8307 0.6191 0 8
3.3003 2.2124 -1.8391 0.6163 0 8
3.2706 2.2892 -1.8479 0.6134 0 8
3.2398 2.3661 -1.8570 0.6104 0 8
3.2078 2.4431 -1.8664 0.6073 0 8
3.1746 2.5203 -1.8762 0.6041 0 8
3.1402 2.5976 -1.8864 0.6008 0 8
3.1045 2.6751 -1.8969 0.5975 0 8
3.0676 2.7527 -1.9078 0.5941 0 8
3.0294 2.8304 -1.9191 0.5906 0 8
2.9900 2.9083 -1.9307 0.5870 0 8
2.9491 2.9864 -1.9428 0.5834 0 8
2.9069 3.0646 -1.9552 0.5797 0 8
2.8634 3.1430 -1.9680 0.5759 0 8
2.8185 3.2215 -1.9813 0.5721 0 8
2.7721 3.3001 -1.9950 0.5681 0 8
2.7243 3.3789 -2.0091 0.5642 0 8
2.6750 3.4579 -2.0236 0.5601 0 8
2.6242 3.5370 -2.0386 0.5560 0 8
2.5719 3.6162 -2.0541 0.5518 0 8
2.5180 3.6956 -2.0700 0.5476 0 8
2.4625 3.7751 -2.0863 0.5433 0 8
2.4054 3.8548 -2.1032 0.5389 0 8
2.3465 3.9346 -2.1206 0.5345 0 8
2.2860 4.0145 -2.1384 0.5300 0 8
2.2238 4.0946 -2.1568 0.5255 0 8
2.1597 4.1747 -2.1757 0.5210 0 8
2.0938 4.2550 -2.1951 0.5163 0 8
2.0261 4.3354 -2.2151 0.5117 0 8
1.9565 4.4158 -2.2356 0.5070 0 8
1.8849 4.4963 -2.2568 0.5022 0 8
1.8114 4.5769 -2.2785 0.4975 0 8
1.7358 4.6576 -2.3008 0.4926 0 8
1.6582 4.7383 -2.3237 0.4878 0 8
1.5783 4.8190 -2.3473 0.4829 0 8
1.4964 4.8998 -2.3714 0.4779 0 8
1.4122 4.9805 -2.3963 0.4730 0 8
1.3257 5.0613 -2.4218 0.4680 0 8
1.2369 5.1419 -2.4480 0.4630 0 8
1.1457 5.2226 -2.4749 0.4580 0 8
1.0521 5.3031 -2.5026 0.4529 0 8
0.9559 5.3836 -2.5309 0.4478 0 8
0.8572 5.4639 -2.5601 0.4427 0 8
0.7558 5.5440 -2.5900 0.4376 0 8
0.6518 5.6240 -2.6207 0.4325 0 8
0.5503 5.7590 -2.6779 0.4377 0 0
0.4260 5.6576 -2.6262 0.9062 0 2
0.3100 5.6247 -2.6075 0.9089 0 2
0.1962 5.6154 -2.6009 0.9112 0 2
0.0899 6.0716 -2.8108 0.4102 0 0
-0.0296 5.5968 -2.5907 0.9148 0 2
-0.1420 5.5876 -2.5872 0.9160 0 2
-0.2872 6.3039 -2.9210 0.3947 0 0
-0.3660 5.5690 -2.5834 0.9174 0 2
-0.5549 6.4558 -2.9994 0.3844 0 0
-0.5898 5.5504 -2.5837 0.9173 0 2
-0.7017 5.5410 -2.5853 0.9167 0 2
-0.9826 6.6782 -3.1245 0.3690 0 0
-0.9263 5.5221 -2.5918 0.9144 0 2
-1.0391 5.5126 -2.5966 0.9127 0 2
-1.4433 6.8922 -3.2595 0.3537 0 0
-1.2662 5.4934 -2.6095 0.9082 0 2
-1.3806 5.4836 -2.6175 0.9054 0 2
-1.4967 5.4769 -2.6281 0.2713 0 2
-2.1124 7.1604 -3.4557 0.3336 0 0
-1.7289 5.4539 -2.6483 0.8949 0 2
-1.8470 5.4437 -2.6609 0.8906 0 2
-2.6581 7.3452 -3.6158 0.3189 0 0
-2.8487 7.4031 -3.6717 0.3140 0 0
-2.2087 5.4125 -2.7059 0.8758 0 2
-2.3418 5.4243 -2.7348 0.8702 0 2
-2.4572 5.3909 -2.7424 0.8642 0 2
-2.5840 5.3798 -2.7626 0.8579 0 2
-2.7129 5.3685 -2.7843 0.8512 0 2
-2.8437 5.3571 -2.8074 0.8442 0 2
-2.9846 5.3593 -2.8395 0.4717 0 2
-4.5404 7.7806 -4.1699 0.2734 0 0
-4.7740 7.8154 -4.2392 0.2651 0 0
-5.0153 7.8511 -4.3124 0.2606 0 0
-3.5350 5.2960 -2.9474 0.8041 0 2
-3.6821 5.2830 -2.9808 0.7951 0 2
-3.8513 5.2955 -3.0309 0.6128 0 2
-4.0439 5.3315 -3.0975 0.5996 0 2
-4.2639 5.3928 -3.1823 0.7727 0 2
-4.4563 5.4088 -3.2440 0.5725 0 2
-4.6981 5.4741 -3.3391 0.7953 0 2
-4.9107 5.4943 -3.4110 0.5445 0 2
-5.1563 5.5406 -3.5034 0.5301 0 2
-7.6017 7.8459 -5.0568 0.2241 0 8
-7.8873 7.8196 -5.1411 0.2204 0 8
-8.1766 7.7866 -5.2265 0.2168 0 8
-8.4692 7.7466 -5.3129 0.2133 0 8
-8.7650 7.6992 -5.4002 0.2098 0 8
-9.0637 7.6442 -5.4883 0.2065 0 8
-9.3649 7.5812 -5.5773 0.2032 0 8
-9.6683 7.5100 -5.6668 0.2000 0 8
-10.3543 7.7141 -5.9768 0.1969 0 7
-10.6724 7.6222 -6.0707 0.1938 0 7
-10.9915 7.5209 -6.1649 0.1909 0 7
-11.3109 7.4099 -6.2591 0.1880 0 7
-11.6301 7.2890 -6.3533 0.1852 0 7
-11.9485 7.1579 -6.4473 0.1825 0 7
-12.2655 7.0166 -6.5409 0.1799 0 7
-12.5803 6.8646 -6.6338 0.1774 0 7
-12.8924 6.7020 -6.7259 0.1750 0 7
-7.0109 3.4673 -3.6205 0.7724 0 5
-13.5051 6.3442 -6.9067 0.1704 0 7
-13.8041 6.1489 -6.9950 0.1682 0 7
-14.0971 5.9426 -7.0815 0.1662 0 7
-14.3834 5.7254 -7.1660 0.1642 0 7
-14.6620 5.4973 -7.2482 0.1623 0 7
-14.9319 5.2585 -7.3279 0.1606 0 7
-15.1924 5.0092 -7.4047 0.1589 0 7
-15.4425 4.7495 -7.4786 0.1573 0 7
-15.6814 4.4798 -7.5491 0.1559 0 7
-15.9079 4.2004 -7.6159 0.1545 0 7
-16.1216 3.9117 -7.6790 0.1532 0 7
-16.3214 3.6142 -7.7380 0.1521 0 7
-16.5066 3.3084 -7.7926 0.1510 0 7
-16.6762 2.9949 -7.8427 0.1500 0 7
-16.8299 2.6743 -7.8880 0.1492 0 7
-16.9665 2.3472 -7.9284 0.1484 0 7
-16.9554 1.9991 -7.9028 0.9704 0 8
-16.9322 1.6518 -7.8749 0.9739 0 8
-16.9084 1.3068 -7.8500 0.9769 0 8
-16.8837 0.9637 -7.8280 0.9797 0 8
-16.8587 0.6225 -7.8090 0.9023 0 8
-16.8374 0.2828 -7.7949 0.9040 0 8
-16.8133 -0.0558 -7.7827 0.9053 0 8
-16.7867 -0.3934 -7.7725 0.9064 0 8
-16.7577 -0.7302 -7.7643 0.9074 0 8
-16.7265 -1.0662 -7.7581 0.9081 0 8
-16.6927 -1.4017 -7.7540 0.9086 0 8
-16.6579 -1.7367 -7.7525 0.9891 0 8
-16.6259 -2.0722 -7.7555 0.9887 0 8
-16.5932 -2.4080 -7.7612 0.9879 0 8
-16.5597 -2.7442 -7.7698 0.9869 0 8
-16.5251 -3.0812 -7.7811 0.9854 0 8
-16.4471 -3.4103 -7.7751 0.1513 0 7
-16.2571 -3.7134 -7.7190 0.1524 0 7
-16.0526 -4.0080 -7.6586 0.1536 0 7
-15.8346 -4.2936 -7.5943 0.1549 0 7
-15.6038 -4.5699 -7.5262 0.1563 0 7
-15.3612 -4.8363 -7.4546 0.1578 0 7
-15.1075 -5.0926 -7.3797 0.1595 0 7
-14.8438 -5.3385 -7.3019 0.1612 0 7
-14.5710 -5.5738 -7.2213 0.1629 0 7
-14.2897 -5.7983 -7.1383 0.1648 0 7
-14.0012 -6.0120 -7.0532 0.1668 0 7
-13.7060 -6.2146 -6.9661 0.1689 0 7
-13.4053 -6.4063 -6.8773 0.1711 0 7
-13.0996 -6.5870 -6.7871 0.1734 0 7
-12.7897 -6.7569 -6.6956 0.1757 0 7
-12.4767 -6.9160 -6.6032 0.1782 0 7
-12.1611 -7.0644 -6.5100 0.1808 0 7
-11.8436 -7.2023 -6.4163 0.1834 0 7
-11.5248 -7.3300 -6.3222 0.1861 0 7
-11.2055 -7.4476 -6.2280 0.1889 0 7
-10.8862 -7.5554 -6.1338 0.1918 0 7
-10.5673 -7.6536 -6.0397 0.1948 0 7
-10.2497 -7.7424 -5.9459 0.1979 0 7
-9.9335 -7.8223 -5.8526 0.2011 0 7
-9.6193 -7.8934 -5.7599 0.2043 0 7
-9.3074 -7.9561 -5.6678 0.2076 0 7
-8.9984 -8.0106 -5.5766 0.2110 0 7
-8.6923 -8.0573 -5.4862 0.2145 0 7
-8.3896 -8.0965 -5.3969 0.2180 0 7
-8.0906 -8.1284 -5.3087 0.2217 0 7
-7.7954 -8.1534 -5.2215 0.2254 0 7
-7.5043 -8.1718 -5.1356 0.2291 0 7
-7.2175 -8.1839 -5.0509 0.2330 0 7
-6.9350 -8.1900 -4.9676 0.2369 0 7
-6.6572 -8.1904 -4.8856 0.2409 0 7
-6.3840 -8.1852 -4.8050 0.2449 0 7
-6.1155 -8.1749 -4.7257 0.2490 0 7
-5.8519 -8.1596 -4.6479 0.2532 0 7
-5.3965 -7.8534 -4.4108 0.3163 0 8
-5.1426 -7.8163 -4.3309 0.2617 0 8
-4.9030 -7.7888 -4.2602 0.2660 0 8
-4.6681 -7.7575 -4.1909 0.2704 0 8
-4.4381 -7.7227 -4.1230 0.2749 0 8
-4.2128 -7.6844 -4.0565 0.2794 0 8
-3.9923 -7.6430 -3.9914 0.2839 0 8
-3.7766 -7.5985 -3.9277 0.2885 0 8
-3.5655 -7.5513 -3.8654 0.2932 0 8
-3.3592 -7.5013 -3.8045 0.2979 0 8
-3.1574 -7.4489 -3.7450 0.3026 0 8
-2.9602 -7.3942 -3.6868 0.3074 0 8
-2.7676 -7.3373 -3.6299 0.3122 0 8
-2.5794 -7.2784 -3.5744 0.3171 0 8
-2.3956 -7.2175 -3.5201 0.3220 0 8
-2.2161 -7.1549 -3.4671 0.3269 0 8
-2.0408 -7.0907 -3.4154 0.3318 0 8
-1.8697 -7.0249 -3.3649 0.3368 0 8
-1.7027 -6.9576 -3.3156 0.3418 0 8
-1.5398 -6.8891 -3.2675 0.3468 0 8
-1.3808 -6.8193 -3.2206 0.3519 0 8
-1.2257 -6.7484 -3.1748 0.3570 0 8
-1.0744 -6.6764 -3.1302 0.3621 0 8
-0.9268 -6.6035 -3.0866 0.3672 0 8
-0.7853 -6.5493 -3.0533 0.9433 0 8
-0.6503 -6.5315 -3.0383 0.9480 0 8
-0.5165 -6.5152 -3.0252 0.8985 0 8
-0.3841 -6.5029 -3.0153 0.9014 0 8
-0.2515 -6.4653 -2.9949 0.3929 0 7
-0.1199 -6.3851 -2.9561 0.3981 0 7
0.0085 -6.3044 -2.9182 0.4032 0 7
0.1336 -6.2232 -2.8813 0.4084 0 7
0.2554 -6.1416 -2.8453 0.4136 0 7
0.3743 -6.0596 -2.8103 0.4187 0 7
0.4900 -5.9773 -2.7761 0.4239 0 7
0.6028 -5.8947 -2.7428 0.4290 0 7
0.7127 -5.8118 -2.7104 0.4341 0 7
0.8198 -5.7287 -2.6788 0.4393 0 7
0.9240 -5.6455 -2.6480 0.4444 0 7
1.0257 -5.5620 -2.6180 0.4495 0 7
1.1246 -5.4785 -2.5888 0.4545 0 7
1.2210 -5.3948 -2.5603 0.4596 0 7
1.3150 -5.3110 -2.5326 0.4646 0 7
1.4063 -5.2272 -2.5056 0.4696 0 7
1.4953 -5.1434 -2.4794 0.4746 0 7
1.5820 -5.0596 -2.4538 0.4795 0 7
1.6663 -4.9757 -2.4289 0.4845 0 7
1.7485 -4.8919 -2.4047 0.4893 0 7
1.8284 -4.8081 -2.3811 0.4942 0 7
1.9061 -4.7244 -2.3581 0.4990 0 7
1.9819 -4.6407 -2.3358 0.5038 0 7
2.0554 -4.5571 -2.3140 0.5085 0 7
2.1271 -4.4736 -2.2929 0.5132 0 7
2.1968 -4.3902 -2.2724 0.5178 0 7
2.2645 -4.3069 -2.2523 0.5224 0 7
2.3304 -4.2237 -2.2329 0.5270 0 7
2.3944 -4.1407 -2.2140 0.5315 0 7
2.4566 -4.0577 -2.1956 0.5359 0 7
2.5171 -3.9749 -2.1778 0.5403 0 7
2.5759 -3.8922 -2.1604 0.5447 0 7
2.6329 -3.8097 -2.1436 0.5489 0 7
2.6883 -3.7273 -2.1272 0.5532 0 7
2.7421 -3.6451 -2.1114 0.5573 0 7
2.7944 -3.5630 -2.0960 0.5614 0 7
2.8450 -3.4811 -2.0810 0.5654 0 7
2.8941 -3.3993 -2.0665 0.5694 0 7
2.9418 -3.3177 -2.0525 0.5733 0 7
2.9879 -3.2362 -2.0388 0.5771 0 7
3.0326 -3.1549 -2.0256 0.5809 0 7
3.0760 -3.0738 -2.0128 0.5846 0 7
3.1179 -2.9928 -2.0005 0.5882 0 7
3.1584 -2.9120 -1.9885 0.5918 0 7
3.1976 -2.8313 -1.9769 0.5952 0 7
3.2355 -2.7508 -1.9658 0.5986 0 7
3.2721 -2.6704 -1.9550 0.6019 0 7
3.3074 -2.5901 -1.9445 0.6051 0 7
3.3415 -2.5101 -1.9345 0.6083 0 7
3.3743 -2.4301 -1.9248 0.6113 0 7
3.4059 -2.3503 -1.9155 0.6143 0 7
3.4363 -2.2707 -1.9065 0.6172 0 7
3.4656 -2.1911 -1.8979 0.6200 0 7
3.4936 -2.1117 -1.8896 0.6227 0 7
3.5205 -2.0325 -1.8816 0.6254 0 7
3.5463 -1.9533 -1.8740 0.6279 0 7
3.5709 -1.8743 -1.8668 0.6303 0 7
3.5945 -1.7954 -1.8598 0.6327 0 7
3.6169 -1.7166 -1.8532 0.6350 0 7
3.7086 0.3262 -1.8261 0.6756 0 7
3.7040 0.4010 -1.8275 0.6751 0 7
3.6985 0.4758 -1.8291 0.6745 0 7
3.6920 0.5507 -1.8310 0.6737 0 7
3.6846 0.6256 -1.8332 0.6729 0 7
3.6762 0.7005 -1.8357 0.6720 0 7
3.6669 0.7755 -1.8384 0.6710 0 7
3.6566 0.8505 -1.8415 0.6699 0 7
3.6453 0.9255 -1.8448 0.6687 0 7
3.6330 1.0006 -1.8484 0.6674 0 7
3.6198 1.0757 -1.8523 0.6660 0 7
3.6056 1.1509 -1.8565 0.6645 0 7
3.5904 1.2261 -1.8610 0.6629 0 7
3.5742 1.3014 -1.8658 0.6612 0 7
3.5569 1.3768 -1.8709 0.6594 0 7
3.5387 1.4522 -1.8763 0.6575 0 7
3.5194 1.5277 -1.8820 0.6555 0 7
3.4991 1.6033 -1.8880 0.6534 0 7
3.4777 1.6789 -1.8943 0.6513 0 7
3.4553 1.7546 -1.9009 0.6490 0 7
3.4318 1.8304 -1.9078 0.6466 0 7
3.4071 1.9063 -1.9151 0.6442 0 7
3.2660 1.9145 -1.8570 0.5332 0 8
3.2312 1.9825 -1.8595 0.6390 0 8
3.2043 2.0559 -1.8675 0.6363 0 8
3.1763 2.1293 -1.8757 0.6335 0 8
3.1472 2.2028 -1.8843 0.6306 0 8
3.1170 2.2763 -1.8933 0.6276 0 8
3.0855 2.3500 -1.9025 0.6246 0 8
3.0530 2.4238 -1.9121 0.6214 0 8
3.0193 2.4976 -1.9221 0.6182 0 8
2.9844 2.5715 -1.9324 0.6149 0 8
2.9483 2.6456 -1.9430 0.6116 0 8
2.9108 2.7197 -1.9541 0.6081 0 8
2.8723 2.7939 -1.9654 0.6046 0 8
2.8323 2.8681 -1.9772 0.6010 0 8
2.7911 2.9425 -1.9894 0.5973 0 8
2.7486 3.0169 -2.0019 0.5936 0 8
2.7047 3.0915 -2.0149 0.5898 0 8
2.6595 3.1661 -2.0282 0.5859 0 8
2.6129 3.2407 -2.0420 0.5819 0 8
2.5649 3.3155 -2.0562 0.5779 0 8
2.5154 3.3903 -2.0708 0.5738 0 8
2.4645 3.4652 -2.0858 0.5697 0 8
2.4120 3.5401 -2.1012 0.5655 0 8
2.3581 3.6151 -2.1172 0.5613 0 8
2.3026 3.6901 -2.1336 0.5570 0 8
2.2455 3.7652 -2.1504 0.5526 0 8
2.1868 3.8402 -2.1677 0.5482 0 8
2.1264 3.9153 -2.1855 0.5437 0 8
2.0644 3.9905 -2.2038 0.5392 0 8
2.0006 4.0656 -2.2226 0.5346 0 8
1.9352 4.1407 -2.2420 0.5300 0 8
1.8679 4.2158 -2.2618 0.5254 0 8
1.7988 4.2908 -2.2822 0.5207 0 8
1.7279 4.3658 -2.3031 0.5159 0 8
1.6550 4.4407 -2.3246 0.5112 0 8
1.5802 4.5156 -2.3467 0.5064 0 8
1.5035 4.5904 -2.3694 0.5015 0 8
1.4246 4.6650 -2.3926 0.4966 0 8
1.3438 4.7395 -2.4165 0.4917 0 8
1.2609 4.8138 -2.4409 0.4868 0 8
1.1758 4.8880 -2.4661 0.4819 0 8
1.0885 4.9620 -2.4918 0.4769 0 8
0.9990 5.0357 -2.5182 0.4719 0 8
0.9072 5.1091 -2.5453 0.4668 0 8
0.8130 5.1823 -2.5731 0.4618 0 8
0.7165 5.2552 -2.6016 0.4567 0 8
0.6175 5.3276 -2.6308 0.4517 0 8
0.5160 5.3998 -2.6608 0.4466 0 8
0.4120 5.4714 -2.6915 0.4415 0 8
0.3054 5.5426 -2.7229 0.4364 0 8
0.1962 5.6134 -2.7552 0.4313 0 8
0.0831 5.6024 -2.7484 0.9040 0 2
-0.0298 5.6164 -2.7550 0.9056 0 2
-0.1419 5.5838 -2.7399 0.9068 0 2
-0.2539 5.5746 -2.7373 0.9077 0 2
-0.3950 6.0091 -2.9540 0.4092 0 0
-0.5223 6.0756 -2.9912 0.4041 0 0
-0.6526 6.1412 -3.0294 0.3990 0 0
-0.7012 5.5373 -2.7379 0.9075 0 2
-0.8133 5.5279 -2.7407 0.9065 0 2
-1.0622 6.3320 -3.1494 0.3838 0 0
-1.0384 5.5089 -2.7498 0.9035 0 2
-1.1516 5.4993 -2.7561 0.9015 0 2
-1.5010 6.5119 -3.2780 0.3687 0 0
-1.3797 5.4799 -2.7719 0.8963 0 2
-1.4948 5.4701 -2.7816 0.8932 0 2
-1.6123 5.4654 -2.7951 0.2924 0 2
-2.1338 6.7311 -3.4637 0.3490 0 0
-1.8457 5.4400 -2.8179 0.8817 0 2
-1.9648 5.4297 -2.8324 0.8772 0 2
-2.6460 6.8763 -3.6141 0.3345 0 0
-2.2071 5.4087 -2.8655 0.8671 0 2
-2.3305 5.3980 -2.8841 0.8615 0 2
-3.1913 7.0015 -3.7743 0.3203 0 0
-3.3806 7.0382 -3.8300 0.3156 0 0
-2.7109 5.3647 -2.9484 0.8427 0 2
-2.8416 5.3532 -2.9729 0.8358 0 2
-2.9746 5.3415 -2.9990 0.8285 0 2
-3.1101 5.3295 -3.0268 0.8209 0 2
-3.2486 5.3183 -3.0570 0.5051 0 2
-4.5974 7.1968 -4.1890 0.2897 0 0
-4.8143 7.2125 -4.2537 0.2853 0 0
-5.0351 7.2243 -4.3195 0.2810 0 0
-3.8591 5.3062 -3.2184 0.6050 0 2
-4.0667 5.3616 -3.3009 0.7598 0 2
-4.2542 5.3806 -3.3646 0.5787 0 2
-5.9064 7.1690 -4.5563 0.2608 0 8
-4.6881 5.4626 -3.5311 0.5514 0 2
-4.9375 5.5243 -3.6344 0.8045 0 2
-5.1683 5.5536 -3.7214 0.5232 0 2
-6.8648 7.0853 -4.8393 0.2455 0 8
-7.1112 7.0502 -4.9120 0.2419 0 8
-7.3600 7.0090 -4.9854 0.2383 0 8
-7.6108 6.9615 -5.0595 0.2348 0 8
-7.8637 6.9074 -5.1341 0.2314 0 8
-8.1179 6.8465 -5.2092 0.2281 0 8
-8.3735 6.7786 -5.2846 0.2248 0 8
-8.6301 6.7036 -5.3604 0.2216 0 8
-8.8873 6.6211 -5.4363 0.2185 0 8
-9.1447 6.5311 -5.5123 0.2155 0 8
-9.4021 6.4333 -5.5883 0.2126 0 8
-10.0278 6.5693 -5.8804 0.2098 0 7
-10.2931 6.4511 -5.9587 0.2070 0 7
-10.5571 6.3244 -6.0366 0.2044 0 7
-10.8188 6.1890 -6.1139 0.2018 0 7
-11.0779 6.0448 -6.1904 0.1993 0 7
-11.3340 5.8919 -6.2659 0.1969 0 7
-6.9803 3.4521 -3.8199 0.7675 0 5
-11.8342 5.5593 -6.4136 0.1923 0 7
-12.0771 5.3796 -6.4853 0.1902 0 7
-12.3144 5.1911 -6.5553 0.1882 0 7
-12.5456 4.9938 -6.6235 0.1863 0 7
-12.7698 4.7879 -6.6897 0.1844 0 7
-12.9865 4.5734 -6.7537 0.1827 0 7
-13.1949 4.3506 -6.8152 0.1810 0 7
-13.3946 4.1196 -6.8741 0.1795 0 7
-13.5849 3.8808 -6.9303 0.1780 0 7
-13.7649 3.6345 -6.9834 0.1767 0 7
-13.9341 3.3810 -7.0334 0.1754 0 7
-14.0921 3.1206 -7.0800 0.1742 0 7
-14.2382 2.8538 -7.1231 0.1732 0 7
-14.3720 2.5811 -7.1626 0.1722 0 7
-14.4928 2.3029 -7.1982 0.1714 0 7
-14.6002 2.0198 -7.2299 0.1706 0 7
-14.6937 1.7324 -7.2576 0.1700 0 7
-14.7732 1.4412 -7.2810 0.1694 0 7
-14.8381 1.1468 -7.3002 0.1690 0 7
-14.8884 0.8499 -7.3150 0.1686 0 7
-14.9237 0.5510 -7.3254 0.1684 0 7
-14.9439 0.2510 -7.3314 0.1683 0 7
-14.9490 -0.0496 -7.3329 0.1682 0 7
-14.9390 -0.3501 -7.3299 0.1683 0 7
-14.9137 -0.6498 -7.3225 0.1685 0 7
-14.8735 -0.9481 -7.3106 0.1687 0 7
-14.8183 -1.2443 -7.2943 0.1691 0 7
-14.7485 -1.5377 -7.2737 0.1696 0 7
-14.6644 -1.8277 -7.2489 0.1702 0 7
-14.5661 -2.1138 -7.2199 0.1709 0 7
-14.4544 -2.3953 -7.1869 0.1717 0 7
-14.3292 -2.6717 -7.1500 0.1725 0 7
-14.1913 -2.9425 -7.1093 0.1735 0 7
-14.0413 -3.2073 -7.0650 0.1746 0 7
-13.8795 -3.4654 -7.0172 0.1758 0 7
-13.7066 -3.7166 -6.9662 0.1771 0 7
-13.5231 -3.9605 -6.9121 0.1785 0 7
-13.3298 -4.1967 -6.8550 0.1800 0 7
-13.1271 -4.4250 -6.7952 0.1815 0 7
-12.9159 -4.6451 -6.7328 0.1832 0 7
-12.6966 -4.8568 -6.6681 0.1850 0 7
-12.4701 -5.0599 -6.6012 0.1869 0 7
-12.2368 -5.2543 -6.5324 0.1889 0 7
-11.9975 -5.4399 -6.4618 0.1909 0 7
-11.7529 -5.6166 -6.3896 0.1931 0 7
-11.5035 -5.7844 -6.3160 0.1953 0 7
-11.2499 -5.9433 -6.2411 0.1977 0 7
-10.9927 -6.0934 -6.1652 0.2001 0 7
-10.7327 -6.2346 -6.0884 0.2026 0 7
-10.4701 -6.3672 -6.0110 0.2052 0 7
-10.2057 -6.4910 -5.9329 0.2079 0 7
-9.9399 -6.6065 -5.8545 0.2107 0 7
-9.6732 -6.7135 -5.7758 0.2136 0 7
-9.4060 -6.8124 -5.6969 0.2165 0 7
-9.1388 -6.9033 -5.6180 0.2196 0 7
-8.8720 -6.9864 -5.5393 0.2227 0 7
-8.6059 -7.0619 -5.4608 0.2259 0 7
-8.3410 -7.1299 -5.3825 0.2292 0 7
-8.0775 -7.1908 -5.3048 0.2326 0 7
-7.8157 -7.2447 -5.2275 0.2360 0 7
-7.5560 -7.2919 -5.1508 0.2395 0 7
-7.2985 -7.3326 -5.0749 0.2431 0 7
-7.0435 -7.3670 -4.9996 0.2467 0 7
-6.7913 -7.3954 -4.9252 0.2505 0 7
-6.5419 -7.4180 -4.8516 0.2543 0 7
-6.2957 -7.4350 -4.7789 0.2581 0 7
-6.0526 -7.4466 -4.7071 0.2621 0 7
-5.8129 -7.4531 -4.6364 0.2661 0 7
-5.5767 -7.4547 -4.5667 0.2701 0 7
-5.3442 -7.4516 -4.4980 0.2743 0 7
-5.1152 -7.4440 -4.4304 0.2784 0 7
-4.8899 -7.4322 -4.3640 0.2827 0 7
-4.6321 -7.3584 -4.2651 0.4913 0 8
-4.3578 -7.2419 -4.1459 0.5759 0 8
-4.1095 -7.1509 -4.0456 0.5902 0 8
-3.8788 -7.0752 -3.9579 0.3002 0 8
-3.6805 -7.0460 -3.8993 0.3047 0 8
-3.4860 -7.0138 -3.8419 0.3093 0 8
-3.2952 -6.9787 -3.7856 0.3139 0 8
-3.1081 -6.9408 -3.7304 0.3185 0 8
-2.9249 -6.9004 -3.6763 0.3232 0 8
-2.7454 -6.8576 -3.6234 0.3279 0 8
-2.5696 -6.8124 -3.5715 0.3327 0 8
-2.3975 -6.7651 -3.5207 0.3375 0 8
-2.2290 -6.7158 -3.4709 0.3423 0 8
-2.0705 -6.6850 -3.4328 0.8756 0 8
-1.9183 -6.6650 -3.4021 0.8848 0 8
-1.7679 -6.6423 -3.3716 0.8928 0 8
-1.6199 -6.6194 -3.3428 0.9005 0 8
-1.4763 -6.6052 -3.3200 0.8570 0 8
-1.3347 -6.5915 -3.2989 0.8624 0 8
-1.1923 -6.5643 -3.2726 0.3770 0 7
-1.0460 -6.5000 -3.2295 0.3820 0 7
-0.9032 -6.4346 -3.1873 0.3871 0 7
-0.7635 -6.3681 -3.1461 0.3921 0 7
-0.6272 -6.3005 -3.1058 0.3972 0 7
-0.4940 -6.2320 -3.0665 0.4023 0 7
-0.3639 -6.1626 -3.0281 0.4074 0 7
-0.2370 -6.0923 -2.9907 0.4125 0 7
-0.1130 -6.0212 -2.9541 0.4176 0 7
0.0079 -5.9495 -2.9183 0.4227 0 7
0.1261 -5.8771 -2.8835 0.4278 0 7
0.2415 -5.8040 -2.8495 0.4329 0 7
0.3540 -5.7304 -2.8162 0.4380 0 7
0.4637 -5.6563 -2.7838 0.4431 0 7
0.5708 -5.5817 -2.7522 0.4482 0 7
0.6753 -5.5067 -2.7214 0.4533 0 7
0.7772 -5.4313 -2.6913 0.4584 0 7
0.8767 -5.3555 -2.6620 0.4634 0 7
0.9736 -5.2795 -2.6334 0.4685 0 7
1.0681 -5.2031 -2.6055 0.4735 0 7
1.1603 -5.1265 -2.5782 0.4785 0 7
1.2502 -5.0496 -2.5517 0.4835 0 7
1.3378 -4.9725 -2.5259 0.4884 0 7
1.4231 -4.8953 -2.5007 0.4933 0 7
1.5064 -4.8179 -2.4761 0.4982 0 7
1.5875 -4.7403 -2.4522 0.5031 0 7
1.6665 -4.6627 -2.4288 0.5079 0 7
1.7435 -4.5849 -2.4061 0.5127 0 7
1.8185 -4.5071 -2.3840 0.5175 0 7
1.8915 -4.4292 -2.3624 0.5222 0 7
1.9626 -4.3513 -2.3415 0.5269 0 7
2.0318 -4.2733 -2.3210 0.5315 0 7
2.0993 -4.1953 -2.3011 0.5361 0 7
2.1648 -4.1173 -2.2818 0.5407 0 7
2.2286 -4.0393 -2.2629 0.5452 0 7
2.2907 -3.9614 -2.2446 0.5496 0 7
2.3511 -3.8834 -2.2268 0.5540 0 7
2.4098 -3.8055 -2.2095 0.5583 0 7
2.4669 -3.7276 -2.1926 0.5626 0 7
2.5223 -3.6498 -2.1762 0.5669 0 7
2.5763 -3.5720 -2.1603 0.5710 0 7
2.6286 -3.4943 -2.1449 0.5752 0 7
2.6795 -3.4166 -2.1299 0.5792 0 7
2.7289 -3.3390 -2.1153 0.5832 0 7
2.7768 -3.2615 -2.1011 0.5871 0 7
2.8233 -3.1841 -2.0874 0.5910 0 7
2.8684 -3.1067 -2.0741 0.5948 0 7
2.9121 -3.0295 -2.0612 0.5985 0 7
2.9544 -2.9523 -2.0487 0.6022 0 7
2.9954 -2.8752 -2.0366 0.6057 0 7
3.0351 -2.7982 -2.0249 0.6092 0 7
3.0734 -2.7213 -2.0136 0.6127 0 7
3.1105 -2.6445 -2.0026 0.6160 0 7
3.1464 -2.5678 -1.9921 0.6193 0 7
3.1810 -2.4911 -1.9819 0.6225 0 7
3.2144 -2.4146 -1.9720 0.6256 0 7
3.2466 -2.3381 -1.9625 0.6286 0 7
3.2776 -2.2618 -1.9533 0.6316 0 7
3.3074 -2.1855 -1.9445 0.6344 0 7
3.3361 -2.1093 -1.9361 0.6372 0 7
3.3637 -2.0332 -1.9279 0.6399 0 7
3.3901 -1.9572 -1.9201 0.6425 0 7
3.4154 -1.8812 -1.9127 0.6450 0 7
3.4396 -1.8054 -1.9055 0.6474 0 7
3.4628 -1.7296 -1.8987 0.6497 0 7
3.4849 -1.6540 -1.8922 0.6520 0 7
3.5796 0.3149 -1.8642 0.6920 0 7
3.5751 0.3871 -1.8655 0.6915 0 7
3.5697 0.4593 -1.8671 0.6909 0 7
3.5633 0.5315 -1.8690 0.6902 0 7
3.5560 0.6038 -1.8712 0.6894 0 7
3.5477 0.6760 -1.8736 0.6885 0 7
3.5386 0.7483 -1.8763 0.6875 0 7
3.5284 0.8207 -1.8793 0.6864 0 7
3.5173 0.8930 -1.8826 0.6852 0 7
3.5053 0.9654 -1.8861 0.6839 0 7
3.4923 1.0378 -1.8900 0.6825 0 7
3.4782 1.1102 -1.8941 0.6810 0 7
3.4633 1.1827 -1.8985 0.6795 0 7
3.4474 1.2552 -1.9032 0.6778 0 7
3.4304 1.3278 -1.9082 0.6760 0 7
3.4124 1.4004 -1.9135 0.6741 0 7
3.3935 1.4730 -1.9191 0.6722 0 7
3.3735 1.5457 -1.9250 0.6701 0 7
3.3525 1.6184 -1.9312 0.6680 0 7
3.3304 1.6912 -1.9377 0.6657 0 7
3.3073 1.7640 -1.9446 0.6634 0 7
3.2831 1.8369 -1.9517 0.6610 0 7
3.2399 1.8992 -1.9483 0.4116 0 8
3.1127 1.9098 -1.8945 0.6558 0 8
3.0863 1.9801 -1.9023 0.6532 0 8
3.0589 2.0505 -1.9104 0.6504 0 8
3.0303 2.1209 -1.9188 0.6475 0 8
3.0006 2.1914 -1.9276 0.6446 0 8
2.9699 2.2619 -1.9367 0.6416 0 8
2.9380 2.3324 -1.9461 0.6385 0 8
2.9050 2.4030 -1.9558 0.6353 0 8
2.8708 2.4737 -1.9659 0.6320 0 8
2.8354 2.5443 -1.9763 0.6287 0 8
2.7989 2.6150 -1.9871 0.6253 0 8
2.7611 2.6858 -1.9983 0.6218 0 8
2.7221 2.7565 -2.0098 0.6182 0 8
2.6819 2.8273 -2.0216 0.6146 0 8
2.6404 2.8981 -2.0339 0.6109 0 8
2.5976 2.9690 -2.0465 0.6071 0 8
2.5535 3.0398 -2.0595 0.6033 0 8
2.5081 3.1107 -2.0729 0.5994 0 8
2.4612 3.1815 -2.0867 0.5954 0 8
2.4131 3.2524 -2.1009 0.5914 0 8
2.3635 3.3232 -2.1156 0.5873 0 8
2.3125 3.3941 -2.1306 0.5832 0 8
2.2601 3.4649 -2.1461 0.5790 0 8
2.2062 3.5356 -2.1620 0.5747 0 8
2.1508 3.6064 -2.1784 0.5704 0 8
2.0938 3.6770 -2.1952 0.5660 0 8
2.0354 3.7476 -2.2124 0.5616 0 8
1.9753 3.8182 -2.2301 0.5572 0 8
1.9136 3.8886 -2.2484 0.5526 0 8
1.8502 3.9589 -2.2670 0.5481 0 8
1.7852 4.0292 -2.2862 0.5435 0 8
1.7185 4.0993 -2.3059 0.5388 0 8
1.6500 4.1692 -2.3261 0.5342 0 8
1.5798 4.2390 -2.3468 0.5294 0 8
1.5078 4.3086 -2.3681 0.5247 0 8
1.4339 4.3780 -2.3899 0.5199 0 8
1.3582 4.4471 -2.4123 0.5151 0 8
1.2805 4.5160 -2.4352 0.5102 0 8
1.2009 4.5847 -2.4587 0.5054 0 8
1.1193 4.6530 -2.4828 0.5005 0 8
1.0357 4.7211 -2.5074 0.4955 0 8
0.9500 4.7887 -2.5327 0.4906 0 8
0.8622 4.8560 -2.5586 0.4856 0 8
0.7723 4.9229 -2.5852 0.4806 0 8
0.6802 4.9894 -2.6123 0.4756 0 8
0.5860 5.0553 -2.6402 0.4706 0 8
0.4893 5.1208 -2.6687 0.4656 0 8
0.3905 5.1857 -2.6978 0.4606 0 8
0.2893 5.2500 -2.7277 0.4555 0 8
0.1857 5.3136 -2.7583 0.4505 0 8
0.0797 5.3766 -2.7896 0.4454 0 8
-0.0288 5.4388 -2.8216 0.4404 0 8
-0.1398 5.5002 -2.8543 0.4353 0 8
-0.2533 5.5608 -2.8878 0.4303 0 8
-0.3730 5.6750 -2.9504 0.4355 0 0
-0.4772 5.5522 -2.8910 0.8987 0 2
-0.5914 5.5660 -2.9038 0.8984 0 2
-0.7047 5.5647 -2.9099 0.4101 0 2
-0.8128 5.5241 -2.8966 0.8969 0 2
-0.9286 5.5355 -2.9119 0.1944 0 2
-1.1324 6.0073 -3.1714 0.3986 0 0
-1.1508 5.4955 -2.9128 0.8919 0 2
-1.2645 5.4859 -2.9206 0.8896 0 2
-1.5503 6.1573 -3.2940 0.3837 0 0
-1.4938 5.4663 -2.9398 0.8838 0 2
-1.6097 5.4563 -2.9513 0.8803 0 2
-1.7267 5.4469 -2.9643 0.3130 0 2
-2.1490 6.3336 -3.4697 0.3643 0 0
-1.9635 5.4258 -2.9935 0.8679 0 2
-2.4665 6.4099 -3.5630 0.3547 0 0
-2.2055 5.4048 -3.0284 0.8579 0 2
-2.3287 5.3941 -3.0480 0.8524 0 2
-2.4536 5.3831 -3.0691 0.8465 0 2
-2.5865 5.3849 -3.0992 0.4279 0 2
-3.3144 6.5589 -3.8124 0.3315 0 0
-3.4931 6.5805 -3.8650 0.3270 0 0
-2.9724 5.3375 -3.1694 0.8197 0 2
-3.1077 5.3255 -3.1988 0.8122 0 2
-3.2455 5.3132 -3.2300 0.8044 0 2
-3.3861 5.3007 -3.2631 0.7962 0 2
-3.5296 5.2879 -3.2982 0.7877 0 2
-4.6342 6.6491 -4.2046 0.3018 0 0
-3.8720 5.3240 -3.4152 0.7465 0 2
-4.0608 5.3538 -3.4860 0.5840 0 2
-5.2449 6.6335 -4.3871 0.2893 0 0
-4.4758 5.4326 -3.6517 0.5576 0 2
-5.5094 6.4195 -4.3886 0.2568 0 2
-4.9333 5.5197 -3.8406 0.5301 0 2
-6.0320 6.4817 -4.5934 0.2705 0 8
-6.2458 6.4465 -4.6565 0.2668 0 8
-6.4613 6.4059 -4.7201 0.2632 0 8
-6.6781 6.3597 -4.7842 0.2597 0 8
-6.8963 6.3079 -4.8486 0.2562 0 8
-7.1155 6.2502 -4.9133 0.2529 0 8
-7.3354 6.1865 -4.9782 0.2496 0 8
-7.5559 6.1167 -5.0433 0.2463 0 8
-7.7765 6.0405 -5.1084 0.2432 0 8
-7.9971 5.9579 -5.1735 0.2401 0 8
-8.2171 5.8686 -5.2385 0.2372 0 8
-8.4365 5.7727 -5.3032 0.2343 0 8
-8.6549 5.6699 -5.3677 0.2314 0 8
-8.8717 5.5602 -5.4317 0.2287 0 8
-9.0867 5.4435 -5.4952 0.2261 0 8
-9.6547 5.5230 -5.7703 0.2236 0 7
-9.8726 5.3871 -5.8346 0.2211 0 7
-10.0874 5.2438 -5.8980 0.2187 0 7
-10.2985 5.0931 -5.9603 0.2164 0 7
-10.5053 4.9350 -6.0213 0.2142 0 7
-10.7075 4.7696 -6.0810 0.2121 0 7
-10.9046 4.5968 -6.1392 0.2101 0 7
-11.0961 4.4168 -6.1957 0.2082 0 7
-11.2814 4.2298 -6.2504 0.2064 0 7
-11.4600 4.0358 -6.3031 0.2047 0 7
-11.6316 3.8351 -6.3538 0.2030 0 7
-11.7955 3.6278 -6.4021 0.2015 0 7
-11.9513 3.4142 -6.4481 0.2001 0 7
-12.0985 3.1945 -6.4916 0.1987 0 7
-12.2368 2.9691 -6.5324 0.1975 0 7
-12.3655 2.7382 -6.5704 0.1963 0 7
-12.4844 2.5023 -6.6055 0.1953 0 7
-12.5929 2.2616 -6.6375 0.1943 0 7
-12.6910 2.0166 -6.6665 0.1935 0 7
-12.7781 1.7678 -6.6922 0.1928 0 7
-12.8539 1.5155 -6.7145 0.1921 0 7
-12.9181 1.2602 -6.7335 0.1916 0 7
-12.9707 1.0025 -6.7490 0.1911 0 7
-13.0113 0.7427 -6.7610 0.1908 0 7
-13.0398 0.4815 -6.7694 0.1906 0 7
-13.0561 0.2193 -6.7742 0.1904 0 7
-13.0602 -0.0434 -6.7754 0.1904 0 7
-13.0520 -0.3059 -6.7730 0.1905 0 7
-13.0317 -0.5678 -6.7670 0.1906 0 7
-12.9992 -0.8286 -6.7574 0.1909 0 7
-12.9546 -1.0878 -6.7443 0.1913 0 7
-12.8982 -1.3448 -6.7276 0.1917 0 7
-12.8301 -1.5991 -6.7075 0.1923 0 7
-12.7505 -1.8503 -6.6840 0.1930 0 7
-12.6598 -2.0980 -6.6573 0.1938 0 7
-12.5583 -2.3415 -6.6273 0.1946 0 7
-12.4462 -2.5807 -6.5942 0.1956 0 7
-12.3241 -2.8150 -6.5581 0.1967 0 7
-12.1921 -3.0441 -6.5192 0.1979 0 7
-12.0508 -3.2677 -6.4775 0.1991 0 7
-11.9008 -3.4854 -6.4332 0.2005 0 7
-11.7423 -3.6969 -6.3864 0.2020 0 7
-11.5758 -3.9021 -6.3373 0.2036 0 7
-11.4018 -4.1006 -6.2860 0.2052 0 7
-11.2209 -4.2923 -6.2325 0.2070 0 7
-11.0335 -4.4770 -6.1772 0.2088 0 7
-10.8402 -4.6546 -6.1202 0.2108 0 7
-10.6414 -4.8250 -6.0615 0.2128 0 7
-10.4375 -4.9880 -6.0013 0.2149 0 7
-10.2292 -5.1437 -5.9399 0.2172 0 7
-10.0169 -5.2920 -5.8772 0.2195 0 7
-9.8010 -5.4328 -5.8135 0.2219 0 7
-9.5821 -5.5662 -5.7488 0.2244 0 7
-9.3605 -5.6923 -5.6835 0.2270 0 7
-9.1367 -5.8111 -5.6174 0.2296 0 7
-8.9110 -5.9226 -5.5508 0.2324 0 7
-8.6840 -6.0270 -5.4838 0.2352 0 7
-8.4560 -6.1243 -5.4165 0.2382 0 7
-8.2273 -6.2147 -5.3490 0.2412 0 7
-7.9982 -6.2983 -5.2814 0.2442 0 7
-7.7692 -6.3752 -5.2138 0.2474 0 7
-7.5405 -6.4457 -5.1463 0.2507 0 7
-7.3124 -6.5097 -5.0790 0.2540 0 7
-7.0852 -6.5676 -5.0119 0.2574 0 7
-6.8592 -6.6195 -4.9452 0.2609 0 7
-6.6344 -6.6655 -4.8789 0.2644 0 7
-6.4113 -6.7058 -4.8130 0.2680 0 7
-6.1900 -6.7406 -4.7477 0.2717 0 7
-5.9707 -6.7702 -4.6829 0.2755 0 7
-5.7534 -6.7946 -4.6188 0.2793 0 7
-5.5385 -6.8140 -4.5554 0.2832 0 7
-5.3260 -6.8287 -4.4927 0.2871 0 7
-5.1160 -6.8387 -4.4307 0.2911 0 7
-4.9087 -6.8444 -4.3695 0.2952 0 7
-4.7041 -6.8458 -4.3091 0.2994 0 7
-4.5024 -6.8432 -4.2496 0.3036 0 7
-4.3036 -6.8366 -4.1909 0.3078 0 7
-4.1078 -6.8264 -4.1331 0.3121 0 7
-3.9151 -6.8125 -4.0762 0.3165 0 7
-3.7254 -6.7953 -4.0203 0.3209 0 7
-3.5388 -6.7747 -3.9652 0.3253 0 7
-3.3554 -6.7511 -3.9111 0.3298 0 7
-3.1751 -6.7245 -3.8579 0.3344 0 7
-2.9981 -6.6950 -3.8056 0.3390 0 7
-2.8242 -6.6629 -3.7543 0.3436 0 7
-2.6536 -6.6282 -3.7039 0.3483 0 7
-2.4861 -6.5911 -3.6545 0.3530 0 7
-2.3218 -6.5517 -3.6060 0.3577 0 7
-2.1607 -6.5101 -3.5584 0.3625 0 7
-2.0028 -6.4664 -3.5118 0.3673 0 7
-1.8479 -6.4207 -3.4661 0.3722 0 7
-1.6962 -6.3731 -3.4214 0.3770 0 7
-1.5476 -6.3238 -3.3775 0.3819 0 7
-1.4021 -6.2729 -3.3345 0.3869 0 7
-1.2595 -6.2203 -3.2925 0.3918 0 7
-1.1200 -6.1663 -3.2513 0.3968 0 7
-0.9834 -6.1108 -3.2110 0.4017 0 7
-0.8497 -6.0541 -3.1715 0.4067 0 7
-0.7189 -5.9961 -3.1329 0.4117 0 7
-0.5910 -5.9369 -3.0951 0.4168 0 7
-0.4658 -5.8766 -3.0582 0.4218 0 7
-0.3435 -5.8152 -3.0221 0.4268 0 7
-0.2238 -5.7529 -2.9868 0.4319 0 7
-0.1068 -5.6897 -2.9522 0.4369 0 7
0.0076 -5.6257 -2.9185 0.4420 0 7
0.1194 -5.5608 -2.8855 0.4471 0 7
0.2286 -5.4952 -2.8533 0.4521 0 7
0.3353 -5.4289 -2.8218 0.4572 0 7
0.4396 -5.3619 -2.7910 0.4622 0 7
0.5415 -5.2943 -2.7609 0.4672 0 7
0.6409 -5.2262 -2.7316 0.4722 0 7
0.7381 -5.1575 -2.7029 0.4773 0 7
0.8329 -5.0884 -2.6749 0.4823 0 7
0.9255 -5.0188 -2.6475 0.4872 0 7
1.0160 -4.9488 -2.6209 0.4922 0 7
1.1042 -4.8784 -2.5948 0.4971 0 7
1.1903 -4.8077 -2.5694 0.5020 0 7
1.2743 -4.7366 -2.5446 0.5069 0 7
1.3563 -4.6652 -2.5204 0.5118 0 7
1.4363 -4.5936 -2.4968 0.5166 0 7
1.5143 -4.5217 -2.4738 0.5215 0 7
1.5904 -4.4495 -2.4513 0.5262 0 7
1.6645 -4.3772 -2.4294 0.5310 0 7
1.7368 -4.3047 -2.4081 0.5357 0 7
1.8073 -4.2320 -2.3873 0.5403 0 7
1.8760 -4.1592 -2.3670 0.5450 0 7
1.9429 -4.0863 -2.3473 0.5496 0 7
2.0081 -4.0132 -2.3280 0.5541 0 7
2.0715 -3.9400 -2.3093 0.5586 0 7
2.1334 -3.8668 -2.2910 0.5630 0 7
2.1936 -3.7934 -2.2733 0.5674 0 7
2.2522 -3.7200 -2.2560 0.5718 0 7
2.3092 -3.6466 -2.2392 0.5761 0 7
2.3647 -3.5731 -2.2228 0.5803 0 7
2.4186 -3.4996 -2.2069 0.5845 0 7
2.4711 -3.4260 -2.1914 0.5887 0 7
2.5220 -3.3525 -2.1763 0.5927 0 7
2.5715 -3.2789 -2.1617 0.5967 0 7
2.6196 -3.2053 -2.1475 0.6007 0 7
2.6663 -3.1317 -2.1337 0.6046 0 7
2.7117 -3.0582 -2.1204 0.6084 0 7
2.7556 -2.9846 -2.1074 0.6121 0 7
2.7983 -2.9111 -2.0948 0.6158 0 7
2.8397 -2.8376 -2.0826 0.6194 0 7
2.8797 -2.7642 -2.0708 0.6229 0 7
2.9185 -2.6907 -2.0593 0.6264 0 7
2.9560 -2.6174 -2.0482 0.6298 0 7
2.9923 -2.5440 -2.0375 0.6331 0 7
3.0274 -2.4707 -2.0272 0.6363 0 7
3.0613 -2.3974 -2.0172 0.6395 0 7
3.0940 -2.3242 -2.0075 0.6426 0 7
3.1256 -2.2510 -1.9982 0.6456 0 7
3.1560 -2.1778 -1.9892 0.6485 0 7
3.1853 -2.1048 -1.9806 0.6513 0 7
3.2134 -2.0317 -1.9723 0.6540 0 7
3.2404 -1.9587 -1.9643 0.6567 0 7
3.2664 -1.8858 -1.9566 0.6593 0 7
3.2913 -1.8129 -1.9493 0.6618 0 7
3.3151 -1.7400 -1.9423 0.6642 0 7
3.3379 -1.6672 -1.9356 0.6665 0 7
3.3595 -1.5945 -1.9292 0.6687 0 7
3.4566 0.3040 -1.9005 0.7080 0 7
3.4522 0.3738 -1.9018 0.7076 0 7
3.4468 0.4435 -1.9034 0.7070 0 7
3.4405 0.5132 -1.9052 0.7063 0 7
3.4334 0.5829 -1.9074 0.7055 0 7
3.4253 0.6527 -1.9098 0.7046 0 7
3.4162 0.7225 -1.9124 0.7036 0 7
3.4062 0.7922 -1.9154 0.7025 0 7
3.3953 0.8620 -1.9186 0.7014 0 7
3.3834 0.9318 -1.9221 0.7001 0 7
3.3706 1.0017 -1.9259 0.6987 0 7
3.3569 1.0715 -1.9299 0.6972 0 7
3.3422 1.1414 -1.9343 0.6957 0 7
3.3265 1.2112 -1.9389 0.6940 0 7
3.3098 1.2811 -1.9438 0.6923 0 7
3.2921 1.3510 -1.9490 0.6904 0 7
3.2736 1.4210 -1.9545 0.6885 0 7
3.2539 1.4909 -1.9603 0.6864 0 7
3.2333 1.5609 -1.9664 0.6843 0 7
3.2116 1.6309 -1.9728 0.6821 0 7
3.1889 1.7009 -1.9795 0.6798 0 7
3.1653 1.7709 -1.9865 0.6774 0 7
3.1405 1.8410 -1.9938 0.6749 0 7
3.0726 1.8852 -1.9744 0.4237 0 8
2.9742 1.9082 -1.9354 0.6697 0 8
2.9472 1.9757 -1.9433 0.6669 0 8
2.9193 2.0432 -1.9516 0.6641 0 8
2.8903 2.1108 -1.9602 0.6612 0 8
2.8601 2.1783 -1.9691 0.6583 0 8
2.8289 2.2458 -1.9783 0.6552 0 8
2.7966 2.3134 -1.9878 0.6520 0 8
2.7631 2.3809 -1.9977 0.6488 0 8
2.7286 2.4484 -2.0079 0.6455 0 8
2.6928 2.5160 -2.0184 0.6422 0 8
2.6560 2.5835 -2.0293 0.6387 0 8
2.6179 2.6509 -2.0405 0.6352 0 8
2.5786 2.7184 -2.0521 0.6316 0 8
2.5381 2.7859 -2.0641 0.6280 0 8
2.4964 2.8533 -2.0764 0.6242 0 8
2.4534 2.9206 -2.0891 0.6204 0 8
2.4091 2.9879 -2.1021 0.6166 0 8
2.3635 3.0552 -2.1156 0.6127 0 8
2.3167 3.1224 -2.1294 0.6087 0 8
2.2685 3.1895 -2.1437 0.6046 0 8
2.2188 3.2566 -2.1583 0.6005 0 8
2.1679 3.3235 -2.1733 0.5964 0 8
2.1155 3.3904 -2.1888 0.5922 0 8
2.0618 3.4571 -2.2046 0.5879 0 8
2.0065 3.5237 -2.2209 0.5836 0 8
1.9499 3.5902 -2.2377 0.5792 0 8
1.8917 3.6566 -2.2548 0.5748 0 8
1.8319 3.7227 -2.2725 0.5704 0 8
1.7707 3.7887 -2.2905 0.5659 0 8
1.7078 3.8545 -2.3091 0.5613 0 8
1.6434 3.9201 -2.3281 0.5567 0 8
1.5773 3.9855 -2.3476 0.5521 0 8
1.5096 4.0506 -2.3676 0.5475 0 8
1.4401 4.1154 -2.3881 0.5428 0 8
1.3690 4.1800 -2.4091 0.5380 0 8
1.2962 4.2442 -2.4306 0.5333 0 8
1.2215 4.3081 -2.4526 0.5285 0 8
1.1451 4.3717 -2.4751 0.5237 0 8
1.0668 4.4348 -2.4983 0.5188 0 8
0.9867 4.4976 -2.5219 0.5140 0 8
0.9046 4.5599 -2.5461 0.5091 0 8
0.8206 4.6217 -2.5709 0.5042 0 8
0.7347 4.6830 -2.5963 0.4992 0 8
0.6467 4.7438 -2.6222 0.4943 0 8
0.5568 4.8040 -2.6488 0.4893 0 8
0.4647 4.8635 -2.6759 0.4844 0 8
0.3707 4.9225 -2.7037 0.4794 0 8
0.2745 4.9807 -2.7321 0.4744 0 8
0.1761 5.0382 -2.7611 0.4694 0 8
0.0755 5.0949 -2.7908 0.4644 0 8
-0.0273 5.1508 -2.8211 0.4594 0 8
-0.1323 5.2057 -2.8521 0.4545 0 8
-0.2396 5.2598 -2.8838 0.4495 0 8
-0.3492 5.3128 -2.9161 0.4445 0 8
-0.4611 5.3648 -2.9492 0.4395 0 8
-0.5755 5.4157 -2.9829 0.4345 0 8
-0.6921 5.4654 -3.0174 0.4296 0 8
-0.8113 5.5139 -3.0525 0.4246 0 8
-0.9328 5.5611 -3.0884 0.4197 0 8
-1.0413 5.5242 -3.0789 0.8839 0 2
-1.1548 5.5146 -3.0859 0.8819 0 2
-1.2635 5.4820 -3.0812 0.8796 0 2
-1.3778 5.4722 -3.0907 0.8769 0 2
-1.5919 5.8254 -3.3076 0.3986 0 0
-1.6086 5.4525 -3.1136 0.8704 0 2
-1.7253 5.4424 -3.1270 0.8667 0 2
-1.8431 5.4322 -3.1418 0.8626 0 2
-2.1584 5.9643 -3.4740 0.3795 0 0
-2.0823 5.4115 -3.1757 0.8534 0 2
-2.4571 6.0211 -3.5618 0.3702 0 0
-2.6102 6.0460 -3.6069 0.3656 0 0
-2.4518 5.3791 -3.2378 0.8370 0 2
-2.5784 5.3680 -3.2617 0.8309 0 2
-2.7068 5.3567 -3.2872 0.8245 0 2
-2.8422 5.3543 -3.3201 0.4614 0 2
-3.4156 6.1333 -3.8450 0.3443 0 0
-3.5846 6.1429 -3.8954 0.3399 0 0
-3.7562 6.1492 -3.9466 0.3355 0 0
-3.3834 5.2965 -3.4423 0.7873 0 2
-3.5268 5.2837 -3.4794 0.7789 0 2
-3.6891 5.2931 -3.5337 0.6010 0 2
-3.8753 5.3285 -3.6087 0.5885 0 2
-4.6488 6.1290 -4.2133 0.3142 0 0
-4.2729 5.4042 -3.7734 0.5628 0 2
-5.0209 6.0941 -4.3247 0.3061 0 0
-4.7097 5.4878 -3.9609 0.5362 0 2
-4.9670 5.5574 -4.0824 0.7999 0 2
-5.5287 5.9408 -4.4449 0.2916 0 8
-5.7181 5.9018 -4.5008 0.2880 0 8
-5.9085 5.8578 -4.5570 0.2844 0 8
-6.0997 5.8089 -4.6134 0.2809 0 8
-6.2916 5.7549 -4.6701 0.2775 0 8
-6.4840 5.6956 -4.7269 0.2742 0 8
-6.6766 5.6309 -4.7837 0.2709 0 8
-6.8692 5.5608 -4.8406 0.2677 0 8
-7.0615 5.4851 -4.8973 0.2646 0 8
-7.2533 5.4037 -4.9539 0.2616 0 8
-7.4443 5.3166 -5.0103 0.2587 0 8
-7.6342 5.2236 -5.0664 0.2558 0 8
-7.8226 5.1247 -5.1220 0.2530 0 8
-8.0094 5.0198 -5.1772 0.2503 0 8
-8.1942 4.9089 -5.2317 0.2477 0 8
-8.3765 4.7919 -5.2855 0.2452 0 8
-8.5562 4.6689 -5.3386 0.2428 0 8
-6.7542 3.5111 -4.1693 0.8535 0 5
-6.8511 3.3882 -4.1862 0.4741 0 5
-9.4222 4.4262 -5.7017 0.2360 0 7
-9.5939 4.2735 -5.7523 0.2339 0 7
-9.7607 4.1146 -5.8016 0.2319 0 7
-9.9225 3.9497 -5.8493 0.2300 0 7
-10.0788 3.7789 -5.8955 0.2282 0 7
-10.2292 3.6024 -5.9399 0.2265 0 7
-10.3733 3.4202 -5.9824 0.2249 0 7
-10.5109 3.2327 -6.0230 0.2234 0 7
-10.6414 3.0400 -6.0615 0.2220 0 7
-10.7645 2.8423 -6.0979 0.2207 0 7
-10.8800 2.6399 -6.1319 0.2194 0 7
-10.9874 2.4331 -6.1636 0.2183 0 7
-11.0864 2.2221 -6.1929 0.2173 0 7
-11.1769 2.0073 -6.2196 0.2164 0 7
-11.2583 1.7890 -6.2436 0.2155 0 7
-11.3306 1.5675 -6.2649 0.2148 0 7
-11.3935 1.3433 -6.2835 0.2142 0 7
-11.4468 1.1167 -6.2992 0.2136 0 7
-11.4903 0.8880 -6.3121 0.2132 0 7
-11.5240 0.6578 -6.3220 0.2128 0 7
-11.5476 0.4264 -6.3290 0.2126 0 7
-11.5611 0.1942 -6.3330 0.2125 0 7
-11.5645 -0.0384 -6.3340 0.2124 0 7
-11.5578 -0.2709 -6.3320 0.2125 0 7
-11.5408 -0.5029 -6.3270 0.2127 0 7
-11.5139 -0.7340 -6.3191 0.2129 0 7
-11.4771 -0.9637 -6.3081 0.2133 0 7
-11.4303 -1.1917 -6.2944 0.2138 0 7
-11.3738 -1.4176 -6.2777 0.2144 0 7
-11.3077 -1.6410 -6.2582 0.2150 0 7
-11.2324 -1.8614 -6.2360 0.2158 0 7
-11.1479 -2.0786 -6.2110 0.2167 0 7
-11.0546 -2.2922 -6.1835 0.2176 0 7
-10.9528 -2.5018 -6.1534 0.2187 0 7
-10.8427 -2.7072 -6.1209 0.2198 0 7
-10.7247 -2.9081 -6.0861 0.2211 0 7
-10.5991 -3.1042 -6.0491 0.2225 0 7
-10.4662 -3.2952 -6.0098 0.2239 0 7
-10.3265 -3.4810 -5.9686 0.2255 0 7
-10.1803 -3.6613 -5.9254 0.2271 0 7
-10.0278 -3.8359 -5.8804 0.2288 0 7
-9.8697 -4.0048 -5.8337 0.2307 0 7
-9.7062 -4.1677 -5.7855 0.2326 0 7
-9.5377 -4.3246 -5.7358 0.2346 0 7
-9.3647 -4.4754 -5.6847 0.2367 0 7
-9.1875 -4.6199 -5.6324 0.2389 0 7
-9.0064 -4.7581 -5.5789 0.2412 0 7
-8.8220 -4.8901 -5.5245 0.2436 0 7
-8.6345 -5.0158 -5.4692 0.2460 0 7
-8.4443 -5.1352 -5.4131 0.2486 0 7
-8.2517 -5.2483 -5.3562 0.2512 0 7
-8.0573 -5.3552 -5.2988 0.2540 0 7
-7.8611 -5.4559 -5.2409 0.2568 0 7
-7.6635 -5.5504 -5.1826 0.2596 0 7
-7.4650 -5.6389 -5.1240 0.2626 0 7
-7.2656 -5.7215 -5.0652 0.2657 0 7
-7.0659 -5.7982 -5.0062 0.2688 0 7
-6.8660 -5.8691 -4.9472 0.2720 0 7
-6.6661 -5.9344 -4.8882 0.2753 0 7
-6.4665 -5.9941 -4.8293 0.2786 0 7
-6.2674 -6.0485 -4.7706 0.2821 0 7
-6.0692 -6.0976 -4.7120 0.2856 0 7
-5.8719 -6.1415 -4.6538 0.2891 0 7
-5.6756 -6.1805 -4.5959 0.2928 0 7
-5.4807 -6.2146 -4.5383 0.2965 0 7
-5.2872 -6.2440 -4.4812 0.3003 0 7
-5.0953 -6.2689 -4.4246 0.3041 0 7
-4.9052 -6.2893 -4.3685 0.3080 0 7
-4.7170 -6.3054 -4.3129 0.3120 0 7
-4.5308 -6.3175 -4.2580 0.3160 0 7
-4.3466 -6.3255 -4.2036 0.3201 0 7
-4.1646 -6.3297 -4.1499 0.3243 0 7
-3.9848 -6.3302 -4.0968 0.3285 0 7
-3.8074 -6.3272 -4.0445 0.3327 0 7
-3.6324 -6.3207 -3.9928 0.3370 0 7
-3.4598 -6.3109 -3.9419 0.3414 0 7
-3.2898 -6.2980 -3.8917 0.3458 0 7
-3.1223 -6.2821 -3.8423 0.3502 0 7
-2.9574 -6.2632 -3.7936 0.3547 0 7
-2.7950 -6.2416 -3.7457 0.3593 0 7
-2.6354 -6.2173 -3.6985 0.3638 0 7
-2.4783 -6.1905 -3.6522 0.3684 0 7
-2.3240 -6.1613 -3.6066 0.3731 0 7
-2.1723 -6.1297 -3.5619 0.3778 0 7
-2.0233 -6.0960 -3.5179 0.3825 0 7
-1.8769 -6.0601 -3.4747 0.3873 0 7
-1.7333 -6.0222 -3.4323 0.3921 0 7
-1.5922 -5.9824 -3.3907 0.3969 0 7
-1.4539 -5.9408 -3.3498 0.4017 0 7
-1.3182 -5.8975 -3.3098 0.4066 0 7
-1.1850 -5.8525 -3.2705 0.4114 0 7
-1.0546 -5.8059 -3.2320 0.4164 0 7
-0.9266 -5.7579 -3.1942 0.4213 0 7
-0.8012 -5.7085 -3.1572 0.4262 0 7
-0.6784 -5.6577 -3.1209 0.4312 0 7
-0.5580 -5.6057 -3.0854 0.4361 0 7
-0.4401 -5.5524 -3.0506 0.4411 0 7
-0.3247 -5.4981 -3.0166 0.4461 0 7
-0.2117 -5.4426 -2.9832 0.4511 0 7
-0.1011 -5.3862 -2.9505 0.4561 0 7
0.0072 -5.3288 -2.9186 0.4611 0 7
0.1131 -5.2705 -2.8873 0.4660 0 7
0.2167 -5.2114 -2.8567 0.4710 0 7
0.3181 -5.1514 -2.8268 0.4760 0 7
0.4173 -5.0907 -2.7975 0.4810 0 7
0.5144 -5.0293 -2.7689 0.4860 0 7
0.6092 -4.9672 -2.7409 0.4909 0 7
0.7019 -4.9045 -2.7136 0.4959 0 7
0.7925 -4.8412 -2.6868 0.5008 0 7
0.8810 -4.7774 -2.6607 0.5057 0 7
0.9675 -4.7130 -2.6352 0.5106 0 7
1.0521 -4.6482 -2.6102 0.5155 0 7
1.1346 -4.5829 -2.5858 0.5204 0 7
1.2153 -4.5172 -2.5620 0.5252 0 7
1.2941 -4.4511 -2.5388 0.5300 0 7
1.3709 -4.3846 -2.5161 0.5348 0 7
1.4460 -4.3178 -2.4939 0.5396 0 7
1.5192 -4.2506 -2.4723 0.5443 0 7
1.5907 -4.1832 -2.4512 0.5490 0 7
1.6604 -4.1155 -2.4306 0.5536 0 7
1.7285 -4.0476 -2.4105 0.5582 0 7
1.7948 -3.9794 -2.3910 0.5628 0 7
1.8596 -3.9110 -2.3719 0.5673 0 7
1.9226 -3.8424 -2.3532 0.5718 0 7
1.9841 -3.7737 -2.3351 0.5763 0 7
2.0440 -3.7047 -2.3174 0.5807 0 7
2.1024 -3.6356 -2.3002 0.5850 0 7
2.1592 -3.5664 -2.2834 0.5893 0 7
2.2145 -3.4971 -2.2671 0.5936 0 7
2.2684 -3.4276 -2.2512 0.5977 0 7
2.3208 -3.3581 -2.2357 0.6019 0 7
2.3718 -3.2885 -2.2207 0.6060 0 7
2.4214 -3.2187 -2.2060 0.6100 0 7
2.4696 -3.1489 -2.1918 0.6139 0 7
2.5165 -3.0791 -2.1780 0.6178 0 7
2.5620 -3.0092 -2.1646 0.6217 0 7
2.6062 -2.9392 -2.1515 0.6254 0 7
2.6491 -2.8692 -2.1388 0.6291 0 7
2.6907 -2.7992 -2.1266 0.6328 0 7
2.7311 -2.7292 -2.1146 0.6363 0 7
2.7702 -2.6591 -2.1031 0.6398 0 7
2.8081 -2.5890 -2.0919 0.6433 0 7
2.8448 -2.5189 -2.0811 0.6466 0 7
2.8803 -2.4488 -2.0706 0.6499 0 7
2.9146 -2.3786 -2.0605 0.6531 0 7
2.9478 -2.3085 -2.0507 0.6562 0 7
2.9798 -2.2384 -2.0412 0.6592 0 7
3.0108 -2.1683 -2.0321 0.6622 0 7
3.0405 -2.0982 -2.0233 0.6651 0 7
3.0693 -2.0281 -2.0148 0.6679 0 7
3.0968 -1.9580 -2.0067 0.6706 0 7
3.1234 -1.8879 -1.9989 0.6732 0 7
3.1488 -1.8179 -1.9913 0.6757 0 7
3.1732 -1.7478 -1.9841 0.6782 0 7
3.1965 -1.6778 -1.9773 0.6806 0 7
3.2189 -1.6078 -1.9707 0.6828 0 7
3.2402 -1.5378 -1.9644 0.6850 0 7
3.3390 0.2937 -1.9352 0.7238 0 7
3.3346 0.3610 -1.9365 0.7233 0 7
3.3294 0.4284 -1.9380 0.7227 0 7
3.3232 0.4957 -1.9399 0.7220 0 7
3.3162 0.5630 -1.9420 0.7212 0 7
3.3082 0.6304 -1.9443 0.7204 0 7
3.2993 0.6977 -1.9469 0.7194 0 7
3.2895 0.7651 -1.9498 0.7183 0 7
3.2787 0.8324 -1.9530 0.7172 0 7
3.2671 0.8998 -1.9564 0.7159 0 7
3.2545 0.9671 -1.9602 0.7145 0 7
3.2409 1.0345 -1.9642 0.7131 0 7
3.2265 1.1019 -1.9684 0.7115 0 7
3.2111 1.1692 -1.9730 0.7099 0 7
3.1947 1.2366 -1.9778 0.7082 0 7
3.1774 1.3040 -1.9829 0.7063 0 7
3.1591 1.3713 -1.9883 0.7044 0 7
3.1399 1.4387 -1.9940 0.7024 0 7
3.1196 1.5060 -2.0000 0.7003 0 7
3.0984 1.5734 -2.0062 0.6981 0 7
3.0761 1.6407 -2.0128 0.6959 0 7
3.0529 1.7080 -2.0197 0.6935 0 7
3.0286 1.7754 -2.0268 0.6910 0 7
3.0033 1.8427 -2.0343 0.6885 0 7
2.9186 1.8725 -2.0020 0.5616 0 8
2.8410 1.9045 -1.9747 0.6832 0 8
2.8136 1.9693 -1.9828 0.6804 0 8
2.8085 2.0511 -2.0079 0.6086 0 8
2.7557 2.0988 -1.9999 0.6746 0 8
2.7252 2.1635 -2.0089 0.6716 0 8
2.6935 2.2281 -2.0182 0.6685 0 8
2.6608 2.2928 -2.0279 0.6653 0 8
2.6270 2.3574 -2.0379 0.6620 0 8
2.5922 2.4219 -2.0481 0.6587 0 8
2.5561 2.4864 -2.0588 0.6553 0 8
2.5189 2.5508 -2.0697 0.6518 0 8
2.4806 2.6152 -2.0810 0.6483 0 8
2.4411 2.6794 -2.0927 0.6447 0 8
2.4004 2.7436 -2.1047 0.6410 0 8
2.3585 2.8078 -2.1171 0.6373 0 8
2.3155 2.8718 -2.1298 0.6334 0 8
2.2711 2.9357 -2.1429 0.6296 0 8
2.2254 2.9995 -2.1563 0.6256 0 8
2.1786 3.0632 -2.1702 0.6217 0 8
2.1304 3.1267 -2.1844 0.6176 0 8
2.0809 3.1901 -2.1990 0.6135 0 8
2.0301 3.2534 -2.2140 0.6094 0 8
1.9779 3.3164 -2.2294 0.6051 0 8
1.9243 3.3793 -2.2452 0.6009 0 8
1.8694 3.4420 -2.2614 0.5966 0 8
1.8130 3.5045 -2.2780 0.5922 0 8
