ply
format ascii 1.0
element vertex 1360
property float32 x
property float32 y
property float32 z
property float32 CosAngle
property uint32 ObjIdx
property uint32 ObjTag
end_header
-3.3121 7.8224 1.3013 0.8650 0 9
-3.4375 7.6846 1.2896 0.8728 0 9
-2.8712 6.0874 1.0311 0.3082 0 9
-2.8873 5.8154 0.9946 0.0777 0 9
-3.0935 5.9283 1.0244 0.4858 0 9
-3.9193 7.1565 1.2500 0.9005 0 9
-7.6992 13.4113 2.3690 0.6652 0 9
-6.5925 10.4837 1.8972 0.9739 0 9
-6.8298 10.3915 1.9050 0.9699 0 9
-7.0619 10.2879 1.9116 0.9791 0 9
-5.6782 7.9258 1.4936 0.3231 0 9
-6.0201 8.0559 1.5406 0.3074 0 9
-7.7551 9.9537 1.9330 0.9682 0 9
-7.9898 9.8405 1.9418 0.9638 0 9
-8.2269 9.7262 1.9515 0.9590 0 9
-8.4663 9.6107 1.9621 0.9539 0 9
-9.0559 9.8726 2.0523 0.8254 0 9
-8.6662 9.0745 1.9223 0.7681 0 9
-8.7157 8.7666 1.8938 0.7797 0 9
-8.1957 7.9186 1.7458 0.5031 0 9
-8.0856 7.5039 1.6899 0.5198 0 9
-7.9824 7.1148 1.6381 0.5362 0 9
-7.8853 6.7489 1.5900 0.5524 0 9
-7.7939 6.4037 1.5453 0.5684 0 9
-7.9169 6.2424 1.5445 0.6086 0 9
-8.2609 6.2485 1.5868 0.7072 0 9
-8.5511 6.2018 1.6182 0.6935 0 9
-8.7221 6.0620 1.6272 0.5295 0 9
-8.6931 5.7863 1.5998 0.5386 0 9
-8.6657 5.5200 1.5740 0.5474 0 9
-8.6399 5.2623 1.5498 0.5560 0 9
-8.6154 5.0128 1.5270 0.5643 0 9
-8.5921 4.7707 1.5055 0.5723 0 9
-11.6692 6.1756 2.0225 0.9319 0 9
-11.8539 5.9715 2.0333 0.9269 0 9
-34.5301 15.6880 5.8102 0.0704 0 9
-35.0604 15.0862 5.8472 0.2532 0 9
-33.1620 9.0216 5.2649 0.4340 0 9
-33.1046 8.2950 5.2282 0.4370 0 9
-33.6250 7.7105 5.2849 0.3544 0 9
-42.8381 6.2553 6.6321 0.2131 0 9
-41.5796 5.2202 6.4197 0.3430 0 9
-40.6071 4.2709 6.2551 0.1918 0 9
-40.6962 3.4547 6.2568 0.0690 0 9
-43.2505 1.9251 6.6322 0.3409 0 9
-42.1129 1.0268 6.4534 0.3294 0 9
-42.0256 0.1796 6.4382 0.4876 0 9
-36.2491 -0.5739 5.5538 0.0674 0 9
-36.6154 -1.3163 5.6129 0.4092 0 9
-40.0137 -5.4940 6.1874 0.3136 0 9
-38.6959 -6.1079 6.0014 0.2322 0 9
-31.1527 -5.5612 4.8479 0.0640 0 9
-38.2594 -7.6265 5.9764 0.2704 0 9
-34.9616 -25.4825 5.6337 0.4502 0 9
-34.5233 -26.2418 5.6470 0.4451 0 9
-33.6634 -26.6726 5.5929 0.4727 0 9
-34.3837 -28.3869 5.8062 0.1845 0 9
-11.0159 -11.1326 2.0395 0.6371 0 9
-10.5666 -11.1169 1.9972 0.6506 0 9
-6.3507 -6.9563 1.2266 0.3433 0 9
-6.5554 -7.4770 1.2949 0.3251 0 9
-6.7846 -8.0597 1.3719 0.3069 0 9
-6.7756 -8.3855 1.4039 0.9535 0 9
-6.5700 -8.4739 1.3963 0.9586 0 9
-6.3665 -8.5615 1.3894 0.9634 0 9
-6.1649 -8.6482 1.3830 0.9678 0 9
-5.9651 -8.7342 1.3773 0.9718 0 9
-5.7669 -8.8195 1.3722 0.9755 0 9
-5.5700 -8.9043 1.3677 0.9787 0 9
-5.4420 -9.1016 1.3809 0.9497 0 9
-6.5177 -11.4155 1.7118 0.8616 0 9
-5.5788 -10.2439 1.5190 0.8983 0 9
-5.3314 -10.2764 1.5076 0.9051 0 9
-5.0878 -10.3085 1.4970 0.9115 0 9
-4.8474 -10.3402 1.4871 0.9176 0 9
-4.6101 -10.3716 1.4780 0.9232 0 9
-3.7172 -8.8372 1.2484 0.2681 0 9
-3.8038 -9.5773 1.3419 0.2494 0 9
-3.9046 -10.4381 1.4512 0.2306 0 9
-3.6871 -10.4948 1.4485 0.9420 0 9
-3.4806 -10.5826 1.4507 0.9272 0 9
-5.1588 -16.8171 2.2907 0.8677 0 9
-4.3003 -15.0942 2.0438 0.1391 0 9
-4.0477 -15.3740 2.0702 0.6549 0 9
-3.7068 -15.3241 2.0531 0.4461 0 9
-3.2698 -14.8144 1.9756 0.4636 0 9
-2.8642 -14.3412 1.9044 0.4809 0 9
-2.4868 -13.9005 1.8389 0.4980 0 9
-2.5599 -16.1793 2.1331 0.9790 0 9
-1.9681 -14.2951 1.8791 0.7971 0 9
-1.6877 -14.3950 1.8874 0.7936 0 9
-1.5695 -16.1955 2.1189 0.9856 0 9
-1.2419 -16.2008 2.1159 0.9870 0 9
-0.9151 -16.2062 2.1137 0.9880 0 9
5.2676 -42.0814 5.5226 0.7587 0 9
6.2590 -42.9732 5.6550 0.9978 0 9
3.4430 -20.7113 2.7341 0.0803 0 1
3.6771 -19.6666 2.6054 0.9796 0 1
4.0859 -19.6571 2.6145 0.9761 0 1
4.4796 -19.5680 2.6141 0.9719 0 1
4.8513 -19.3913 2.6030 0.9674 0 1
5.5105 -20.2850 2.7373 0.5300 0 1
5.9046 -20.1275 2.7315 0.5311 0 1
6.2971 -19.9701 2.7267 0.5242 0 1
6.6850 -19.8029 2.7217 0.5252 0 1
7.0721 -19.6379 2.7180 0.5259 0 1
7.4588 -19.4747 2.7156 0.5263 0 1
7.9650 -19.6069 2.7559 0.9181 0 1
8.4975 -19.7683 2.8020 0.4632 0 1
8.8951 -19.5977 2.8026 0.9118 0 1
9.3882 -19.6258 2.8331 0.9046 0 1
9.8723 -19.6151 2.8596 0.8963 0 1
10.3658 -19.6041 2.8878 0.8873 0 1
10.8693 -19.5928 2.9177 0.8782 0 1
13.8069 -23.7495 3.5773 0.8680 0 1
14.4385 -23.7251 3.6167 0.8581 0 1
15.0917 -23.7116 3.6601 0.8479 0 1
15.7610 -23.6978 3.7061 0.8374 0 1
16.4477 -23.6836 3.7549 0.8265 0 1
17.1612 -23.6802 3.8083 0.8153 0 1
17.8867 -23.6652 3.8629 0.8038 0 1
18.6337 -23.6498 3.9208 0.7919 0 1
19.4037 -23.6338 3.9820 0.7798 0 1
11.9394 -13.9603 2.3921 0.9939 0 9
12.2461 -13.7495 2.3977 0.9916 0 9
5.6647 -6.1083 1.0848 0.9408 0 5
24.0367 -24.8960 4.5064 0.6771 0 2
23.8642 -23.7431 4.3837 0.0751 0 0
23.0813 -22.0588 4.1576 0.0764 0 0
17.9912 -16.5152 3.1803 0.7229 0 20
21.8299 -19.2449 3.7897 0.0895 0 0
21.3409 -18.0645 3.6410 0.0929 0 0
19.3126 -15.6922 3.2404 0.6415 0 20
20.5053 -15.9878 3.3859 0.0999 0 0
20.1491 -15.0687 3.2764 0.1093 0 0
19.8377 -14.2232 3.1787 0.1127 0 0
19.5875 -13.4559 3.0946 0.1512 0 0
19.5744 -12.8755 3.0510 0.1524 0 0
19.5792 -12.3221 3.0125 0.1543 0 0
19.5903 -11.7860 2.9772 0.1561 0 0
19.5001 -11.2042 2.9286 0.1248 0 0
19.2993 -10.5786 2.8659 0.1247 0 0
12.8625 -6.7177 1.8896 0.6214 0 9
13.3218 -6.6202 1.9372 0.8180 0 9
13.1361 -6.2018 1.8917 0.6254 0 9
13.6710 -6.1214 1.9506 0.9346 0 9
14.0416 -5.9514 1.9860 0.7630 0 9
14.2046 -5.6865 1.9925 0.6513 0 9
17.3774 -6.5544 2.4185 0.8422 0 9
17.3692 -6.1554 2.3997 0.3162 0 19
17.8183 -5.9142 2.4448 0.1426 0 8
17.9830 -5.5701 2.4515 0.3377 0 8
18.3020 -5.2681 2.4801 0.1459 0 7
18.2162 -4.8491 2.4547 0.1474 0 7
18.1381 -4.4399 2.4317 0.1488 0 7
18.0675 -4.0395 2.4109 0.1501 0 7
18.0040 -3.6469 2.3921 0.1513 0 7
17.9474 -3.2613 2.3754 0.1523 0 7
17.8974 -2.8818 2.3606 0.1533 0 7
17.8537 -2.5077 2.3478 0.1541 0 7
17.8163 -2.1382 2.3367 0.1549 0 7
17.7849 -1.7725 2.3275 0.1555 0 7
17.7594 -1.4101 2.3199 0.1560 0 7
17.7399 -1.0502 2.3142 0.1564 0 7
17.7260 -0.6921 2.3101 0.1566 0 7
17.7178 -0.3353 2.3077 0.1568 0 7
17.7154 0.0209 2.3069 0.1569 0 7
17.7185 0.3772 2.3079 0.1568 0 7
17.7273 0.7341 2.3105 0.1566 0 7
17.7418 1.0923 2.3147 0.1563 0 7
17.7622 1.4525 2.3207 0.1559 0 7
17.7882 1.8153 2.3284 0.1554 0 7
17.8204 2.1813 2.3379 0.1548 0 7
17.3137 2.4735 2.2775 0.1540 0 8
17.2432 2.8182 2.2752 0.1532 0 8
17.2922 3.1844 2.2897 0.1522 0 8
17.3475 3.5565 2.3060 0.1511 0 8
17.4095 3.9355 2.3243 0.1499 0 8
17.4782 4.3221 2.3446 0.1487 0 8
11.2320 3.0184 1.5145 0.7230 0 9
11.3439 3.2943 1.5383 0.3830 0 9
17.7295 5.5375 2.4187 0.1441 0 8
17.8294 5.9647 2.4482 0.1424 0 8
17.9383 6.4048 2.4804 0.1405 0 8
18.1641 6.9002 2.5303 0.1386 0 0
18.2932 7.3734 2.5684 0.1365 0 0
18.4333 7.8642 2.6097 0.1343 0 0
18.5851 8.3745 2.6545 0.1321 0 0
18.7391 8.9013 2.7015 0.1359 0 0
18.8608 9.4283 2.7458 0.1337 0 0
18.9938 9.9770 2.7939 0.1314 0 0
19.1389 10.5495 2.8458 0.1290 0 0
19.2544 11.1236 2.8957 0.1375 0 0
19.3367 11.6958 2.9428 0.1353 0 0
19.4291 12.2918 2.9939 0.1330 0 0
19.5350 12.9158 3.0496 0.1225 0 0
11.9588 8.2569 1.8924 0.9461 0 9
11.7135 8.4402 1.8801 0.9523 0 9
20.1664 15.1561 3.2851 0.1028 0 0
20.5317 16.0865 3.3966 0.0994 0 0
20.9370 17.0943 3.5198 0.0936 0 0
21.4158 18.2149 3.6611 0.0900 0 0
21.9476 19.4409 3.8180 0.0863 0 0
22.5410 20.7900 3.9932 0.0825 0 0
23.2064 22.2836 4.1896 0.0786 0 0
23.9571 23.9485 4.4112 0.0747 0 0
24.8096 25.8183 4.6627 0.0706 0 0
25.7849 27.9363 4.9506 0.0665 0 0
25.7845 29.0878 5.0618 0.7272 0 11
24.7393 29.0652 4.9703 0.7406 0 11
23.7306 29.0435 4.8840 0.7537 0 11
22.7292 28.9881 4.7969 0.7665 0 11
21.7873 28.9678 4.7201 0.7790 0 11
20.8996 28.9825 4.6531 0.7911 0 11
20.1174 29.1140 4.6083 0.0357 0 11
22.1541 33.4813 5.2280 0.8163 0 1
21.1996 33.4824 5.1606 0.8275 0 1
20.2465 33.4463 5.0913 0.8382 0 1
18.3107 31.6685 4.7637 0.4311 0 1
17.3620 31.4712 4.6805 0.8578 0 1
16.6048 31.5836 4.6466 0.9835 0 1
15.9847 31.9473 4.6519 0.9628 0 1
15.4311 32.4552 4.6797 0.4677 0 1
15.0373 33.3394 4.7627 0.8922 0 1
14.2290 33.3184 4.7178 0.9007 0 1
13.7470 34.0702 4.7842 0.4117 0 1
13.6430 35.8746 4.9980 0.3964 0 1
13.6662 38.2314 5.2870 0.2285 0 1
13.0737 39.0324 5.3604 0.9329 0 1
12.2012 39.0145 5.3232 0.9395 0 1
11.8167 40.6352 5.5107 0.1637 0 1
-3.4432 11.9784 1.6230 0.7058 0 9
-3.7277 12.0501 1.6425 0.6974 0 9
-4.0193 12.1240 1.6633 0.6887 0 9
-4.2343 11.9619 1.6524 0.8901 0 9
-4.4495 11.8097 1.6434 0.3978 0 9
-4.7442 11.8635 1.6638 0.8539 0 9
-3.3460 7.9023 1.1175 0.8308 0 9
-3.4230 7.6520 1.0916 0.8793 0 9
-3.0137 6.3893 0.9199 0.4613 0 9
-3.6667 7.3853 1.0737 0.8940 0 9
-3.7858 7.2552 1.0657 0.9007 0 9
-3.9276 7.1716 1.0648 0.8720 0 9
-6.1077 10.6391 1.5975 0.3856 0 9
-6.3836 10.6194 1.6135 0.9892 0 9
-6.5963 10.4897 1.6136 0.9764 0 9
-6.8337 10.3975 1.6202 0.9724 0 9
-7.0643 10.2914 1.6255 0.9819 0 9
-5.7161 7.9787 1.2781 0.5520 0 9
-6.0821 8.1388 1.3231 0.3820 0 9
-7.4722 9.5907 1.5833 0.0237 0 9
-7.9926 9.8439 1.6512 0.9666 0 9
-8.2296 9.7296 1.6595 0.9618 0 9
-8.9459 10.1551 1.7623 0.8197 0 9
-9.0323 9.8469 1.7400 0.8302 0 9
-9.1168 9.5463 1.7190 0.8403 0 9
-8.8153 8.8667 1.6282 0.8573 0 9
-8.1552 7.8794 1.4767 0.5072 0 9
-8.0469 7.4679 1.4296 0.5239 0 9
-7.9453 7.0818 1.3860 0.5404 0 9
-7.8498 6.7184 1.3455 0.5567 0 9
-7.7597 6.3756 1.3078 0.5727 0 9
-7.8728 6.2077 1.3056 0.6140 0 9
-8.2432 6.2351 1.3459 0.7110 0 9
-8.5211 6.1801 1.3707 0.5361 0 9
-8.4954 5.9045 1.3472 0.5454 0 9
-8.4709 5.6383 1.3251 0.5545 0 9
-8.4477 5.3811 1.3043 0.5634 0 9
-8.4257 5.1319 1.2847 0.5720 0 9
-11.2705 6.5577 1.6980 0.9466 0 9
-11.4507 6.3579 1.7056 0.9424 0 9
-11.6328 6.1564 1.7139 0.9378 0 9
-11.8167 5.9528 1.7230 0.9328 0 9
-34.8751 16.6984 5.0352 0.4888 0 9
-31.4669 9.2437 4.2708 0.3345 0 9
-31.4868 8.5659 4.2492 0.3362 0 9
-31.4161 7.8720 4.2175 0.2641 0 9
-31.7398 7.2782 4.2404 0.1857 0 9
-11.8088 2.4591 1.5708 0.9864 0 5
-34.0983 6.3884 4.5175 0.2588 0 9
-41.6048 6.0752 5.4753 0.4205 0 9
-11.8296 1.4852 1.5525 0.3366 0 5
-11.6936 1.2299 1.5311 0.7852 0 5
-11.8761 1.0082 1.5521 0.4035 0 5
-11.8064 0.7636 1.5406 0.2166 0 5
-41.4835 1.8464 5.4074 0.3249 0 9
-41.2073 1.0047 5.3677 0.2088 0 9
-40.9207 0.1749 5.3288 0.2484 0 9
-36.5735 -0.5790 4.7632 0.2196 0 9
-36.4748 -1.3112 4.7528 0.3794 0 9
-36.6730 -2.0572 4.7831 0.2599 0 9
-38.3096 -5.2600 5.0355 0.2618 0 9
-37.6973 -5.9503 4.9697 0.1984 0 9
-38.2012 -6.8196 5.0532 0.3427 0 9
-38.3970 -7.6540 5.0984 0.1448 0 9
-30.4889 -6.7174 4.0655 0.0657 0 9
-29.7753 -19.9206 3.8469 0.1889 0 9
-40.5420 -28.3198 5.3104 0.3879 0 9
-32.6664 -23.8097 4.3407 0.0390 0 9
-31.9999 -24.3237 4.3162 0.0392 0 9
-33.4250 -26.4838 4.5793 0.3478 0 9
-31.8321 -26.2803 4.4326 0.0627 0 9
-36.2829 -32.4938 5.2302 0.1279 0 9
-11.3719 -11.0395 1.7019 0.6313 0 9
-11.1610 -11.2793 1.7039 0.5261 0 9
-6.4627 -7.3713 1.0527 0.3307 0 9
-6.6830 -7.9390 1.1143 0.3124 0 9
-6.7738 -8.3833 1.1574 0.9563 0 9
-6.5683 -8.4718 1.1511 0.9615 0 9
-6.3648 -8.5593 1.1454 0.9663 0 9
-6.1633 -8.6460 1.1402 0.9707 0 9
-5.9636 -8.7320 1.1355 0.9747 0 9
-5.7654 -8.8173 1.1313 0.9783 0 9
-7.1913 -11.4960 1.4561 0.8375 0 9
-6.8846 -11.5142 1.4406 0.8465 0 9
-6.5841 -11.5318 1.4259 0.8552 0 9
-5.5581 -10.2060 1.2479 0.9041 0 9
-5.3118 -10.2386 1.2386 0.9109 0 9
-5.0691 -10.2708 1.2299 0.9173 0 9
-4.8298 -10.3027 1.2219 0.9234 0 9
-4.5935 -10.3342 1.2144 0.9291 0 9
-4.3600 -10.3654 1.2075 0.9344 0 9
-3.7359 -9.4064 1.0868 0.2546 0 9
-3.8294 -10.2370 1.1737 0.2358 0 9
-3.6740 -10.4576 1.1902 0.9479 0 9
-3.5218 -10.7080 1.2104 0.9188 0 9
-3.3033 -14.9663 1.6458 0.4601 0 9
-2.8926 -14.4829 1.5859 0.4775 0 9
-2.5105 -14.0331 1.5308 0.4946 0 9
-2.5862 -16.3454 1.7770 0.1857 0 9
-2.3293 -16.9181 1.8338 0.6313 0 9
-2.0695 -17.6505 1.9083 0.9894 0 9
-1.7188 -17.7350 1.9133 0.9868 0 9
-1.3660 -17.8199 1.9192 0.9839 0 9
3.3997 -23.3423 2.5330 0.0716 0 1
3.2580 -19.5982 2.1334 0.9840 0 1
3.6702 -19.6299 2.1444 0.9815 0 1
4.0866 -19.6602 2.1563 0.9786 0 1
4.4985 -19.6505 2.1647 0.9748 0 1
4.8940 -19.5620 2.1654 0.9701 0 1
5.3116 -19.5531 2.1757 0.9654 0 1
5.7163 -19.4855 2.1806 0.5420 0 1
6.1816 -19.6040 2.2073 0.9478 0 1
6.6180 -19.6046 2.2219 0.9415 0 1
7.0603 -19.6052 2.2376 0.9349 0 1
7.5091 -19.6059 2.2545 0.9279 0 1
7.9649 -19.6064 2.2725 0.9206 0 1
8.4283 -19.6072 2.2917 0.9124 0 1
8.8957 -19.5991 2.3112 0.9148 0 1
9.4048 -19.6606 2.3403 0.9067 0 1
9.8899 -19.6499 2.3622 0.8983 0 1
10.3843 -19.6391 2.3855 0.8895 0 1
10.8889 -19.6280 2.4103 0.8804 0 1
11.3856 -19.5845 2.4326 0.8739 0 1
14.4408 -23.7288 2.9828 0.8603 0 1
15.0941 -23.7154 3.0187 0.8501 0 1
15.7636 -23.7016 3.0566 0.8395 0 1
16.4504 -23.6875 3.0968 0.8286 0 1
17.1640 -23.6842 3.1409 0.8174 0 1
17.8897 -23.6692 3.1860 0.8058 0 1
18.6369 -23.6538 3.2337 0.7939 0 1
19.3428 -23.5595 3.2733 0.7817 0 1
20.4701 -23.9350 3.3820 0.0805 0 0
12.2906 -13.7995 1.9843 0.9906 0 9
5.6927 -6.1386 0.8990 0.8975 0 5
18.9242 -19.6008 2.9257 0.0931 0 0
18.5128 -18.4189 2.8042 0.0971 0 0
18.1494 -17.3454 2.6958 0.1038 0 0
17.8389 -16.3754 2.6003 0.1076 0 0
17.5659 -15.4858 2.5146 0.1191 0 0
17.3675 -14.7011 2.4434 0.1225 0 0
17.1731 -13.9538 2.3761 0.1264 0 0
17.0772 -13.3149 2.3253 0.1608 0 0
17.0746 -12.7694 2.2895 0.1633 0 0
17.0785 -12.2448 2.2566 0.1650 0 0
17.0940 -11.7430 2.2270 0.1671 0 0
16.9899 -11.1755 2.1837 0.1327 0 0
10.9017 -6.8609 1.3832 0.5359 0 9
11.3317 -6.8174 1.4201 0.1641 0 9
11.6293 -6.6819 1.4402 0.2061 0 9
12.9757 -7.1124 1.5889 0.0825 0 9
12.6589 -6.6113 1.5336 0.8833 0 9
12.9712 -6.4460 1.5554 0.8426 0 9
12.9626 -6.1199 1.5393 0.5654 0 9
13.4294 -6.0132 1.5800 0.4935 0 9
15.2659 -6.4703 1.7805 0.5228 0 19
15.4765 -6.1956 1.7901 0.3888 0 19
15.6016 -5.8847 1.7905 0.1609 0 8
15.8443 -5.6150 1.8051 0.3517 0 8
16.0530 -5.3283 1.8163 0.1647 0 7
15.9891 -4.9525 1.7974 0.1665 0 7
15.9304 -4.5855 1.7801 0.1681 0 7
15.8767 -4.2264 1.7642 0.1696 0 7
15.8277 -3.8744 1.7498 0.1710 0 7
15.7834 -3.5288 1.7367 0.1723 0 7
15.7434 -3.1890 1.7249 0.1735 0 7
15.7076 -2.8543 1.7143 0.1745 0 7
15.6760 -2.5241 1.7050 0.1755 0 7
15.6483 -2.1979 1.6968 0.1763 0 7
15.6246 -1.8752 1.6899 0.1771 0 7
15.6047 -1.5552 1.6840 0.1777 0 7
15.5886 -1.2377 1.6792 0.1782 0 7
15.5761 -0.9221 1.6755 0.1786 0 7
15.5672 -0.6078 1.6729 0.1788 0 7
15.5621 -0.2945 1.6714 0.1790 0 7
15.5605 0.0184 1.6709 0.1791 0 7
15.5625 0.3313 1.6715 0.1790 0 7
15.5681 0.6447 1.6732 0.1788 0 7
15.5774 0.9591 1.6759 0.1785 0 7
15.5903 1.2749 1.6797 0.1781 0 7
15.6069 1.5927 1.6846 0.1776 0 7
15.6272 1.9129 1.6906 0.1770 0 7
15.6514 2.2360 1.6977 0.1762 0 7
15.1018 2.4682 1.6432 0.1754 0 8
15.1327 2.7867 1.6523 0.1744 0 8
15.1675 3.1096 1.6626 0.1733 0 8
15.2066 3.4375 1.6741 0.1721 0 8
11.4288 2.8262 1.2642 0.1788 0 9
11.1828 3.0051 1.2434 0.9254 0 9
11.0481 3.2084 1.2354 0.9314 0 9
11.0337 3.4462 1.2413 0.8178 0 9
11.1947 3.7450 1.2676 0.3780 0 9
15.5365 5.5473 1.7715 0.1627 0 8
15.6096 5.9298 1.7931 0.1607 0 8
15.6372 6.3029 1.8104 0.1489 0 8
15.7879 6.7356 1.8432 0.1629 0 8
15.8399 7.1374 1.8656 0.1608 0 8
15.8660 7.5365 1.8862 0.1653 0 8
15.9103 7.9534 1.9100 0.1579 0 8
15.9945 8.4015 1.9400 0.1466 0 8
16.1208 8.8858 1.9766 0.1416 0 8
16.4703 9.5151 2.0425 0.1487 0 0
16.5667 10.0203 2.0791 0.1461 0 0
16.6714 10.5472 2.1184 0.1433 0 0
16.7473 11.0727 2.1559 0.1527 0 0
12.0060 8.2895 1.5667 0.9449 0 9
11.7594 8.4733 1.5564 0.9512 0 9
16.9215 12.7174 2.2730 0.1448 0 0
17.0374 13.3488 2.3242 0.1329 0 0
17.1751 14.0228 2.3809 0.1297 0 0
17.3253 14.7358 2.4423 0.1265 0 0
17.5690 15.5624 2.5203 0.1108 0 0
17.8549 16.4679 2.6083 0.1070 0 0
18.1831 17.4601 2.7070 0.1006 0 0
18.5588 18.5522 2.8178 0.0967 0 0
18.9754 19.7469 2.9408 0.0926 0 0
19.4391 21.0610 3.0776 0.0885 0 0
19.9581 22.5151 3.2308 0.0843 0 0
20.5424 24.1347 3.4033 0.0800 0 0
21.2045 25.9519 3.5987 0.0757 0 0
21.9602 28.0076 3.8218 0.0713 0 0
21.7834 28.9626 3.8916 0.7812 0 11
20.8711 28.9430 3.8318 0.7934 0 11
20.0098 28.9583 3.7798 0.8052 0 11
19.1492 28.9399 3.7264 0.8168 0 11
18.2905 28.8877 3.6715 0.8280 0 11
17.4973 28.9045 3.6282 0.8389 0 11
16.6681 28.8275 3.5758 0.8494 0 11
17.3648 31.4763 3.8602 0.9808 0 1
16.6582 31.6852 3.8440 0.9983 0 1
16.0835 32.1447 3.8597 0.9625 0 1
15.6974 33.0154 3.9256 0.4567 0 1
15.0345 33.3330 3.9266 0.8948 0 1
14.2262 33.3121 3.8896 0.9033 0 1
13.9644 34.6090 4.0075 0.4064 0 1
13.8672 36.4641 4.1892 0.3910 0 1
13.7587 38.4903 4.3893 0.3740 0 1
13.0500 38.9614 4.4122 0.9356 0 1
12.1789 38.9436 4.3816 0.9421 0 1
11.3197 38.9261 4.3531 0.9483 0 1
-4.2529 13.7478 1.5453 0.3498 0 9
-3.9569 11.9359 1.3503 0.7015 0 9
-4.2502 12.0071 1.3677 0.8891 0 9
-4.4742 11.8752 1.3627 0.8621 0 9
-4.7679 11.9228 1.3789 0.8520 0 9
-5.0688 11.9714 1.3960 0.8415 0 9
-5.3774 12.0211 1.4141 0.8307 0 9
-5.6941 12.0721 1.4333 0.8196 0 9
-3.6812 7.4145 0.8889 0.8636 0 9
-3.7703 7.2254 0.8752 0.9069 0 9
-7.5417 13.7710 1.6860 0.7543 0 9
-7.9391 13.8292 1.7123 0.7427 0 9
-6.3643 10.5873 1.3265 0.9821 0 9
-5.9073 9.3941 1.1916 0.4274 0 9
-6.6770 10.1590 1.3054 0.2598 0 9
-5.6818 8.2773 1.0781 0.4219 0 9
-5.6498 7.8861 1.0417 0.3206 0 9
-7.5273 10.0728 1.3503 0.9773 0 9
-7.7603 9.9605 1.3559 0.9733 0 9
-7.9953 9.8472 1.3621 0.9688 0 9
-8.2325 9.7329 1.3689 0.9640 0 9
-8.9225 10.1285 1.4495 0.8240 0 9
-9.0091 9.8215 1.4311 0.8346 0 9
-9.0935 9.5220 1.4138 0.8448 0 9
-9.1760 9.2296 1.3975 0.8546 0 9
-8.1152 7.8408 1.2117 0.5111 0 9
-8.0087 7.4325 1.1733 0.5278 0 9
-7.9088 7.0492 1.1376 0.5444 0 9
-7.8148 6.6884 1.1046 0.5607 0 9
-7.7261 6.3480 1.0738 0.5768 0 9
-7.8295 6.1735 1.0707 0.6190 0 9
-8.2256 6.2218 1.1075 0.7144 0 9
-8.3029 6.0217 1.1014 0.5516 0 9
-8.2814 5.7557 1.0830 0.5610 0 9
-8.2609 5.4986 1.0656 0.5701 0 9
-8.2415 5.2497 1.0493 0.5790 0 9
-9.7949 5.9658 1.2315 0.6425 0 9
-11.2360 6.5376 1.3959 0.9520 0 9
-11.4155 6.3384 1.4021 0.9478 0 9
-11.5968 6.1374 1.4089 0.9432 0 9
-32.6000 16.4227 3.9197 0.3755 0 9
-33.4398 16.0112 3.9812 0.3697 0 9
-34.3102 15.5881 4.0467 0.3637 0 9
-31.5101 9.9487 3.5482 0.0675 0 9
-32.3299 8.7953 3.5978 0.1185 0 9
-31.2720 7.8358 3.4619 0.2951 0 9
-30.7952 7.0616 3.3927 0.3231 0 9
-31.4437 6.5479 3.4489 0.2445 0 9
-31.7324 5.9452 3.4668 0.1878 0 9
-40.7965 5.9572 4.4272 0.4694 0 9
-40.5588 5.0921 4.3894 0.2560 0 9
-41.3600 4.3501 4.4658 0.3966 0 9
-40.3333 3.4240 4.3466 0.4849 0 9
-40.2887 2.6058 4.3353 0.5414 0 9
-41.5100 1.8476 4.4618 0.3972 0 9
-40.6941 0.9922 4.3711 0.4393 0 9
-40.6877 0.1739 4.3692 0.3812 0 9
-35.5092 -0.5621 3.8135 0.2485 0 9
-35.2683 -1.2678 3.7896 0.1374 0 9
-35.9967 -2.0192 3.8715 0.4396 0 9
-38.5154 -5.2883 4.1746 0.3430 0 9
-38.1964 -6.0291 4.1524 0.3634 0 9
-37.8316 -6.7536 4.1266 0.3657 0 9
-37.4751 -7.4702 4.1033 0.3678 0 9
-37.7972 -8.3277 4.1561 0.2368 0 9
-28.7613 -19.2422 2.9294 0.2019 0 9
-38.9413 -28.3832 4.0792 0.1410 0 9
-33.1397 -25.1901 3.5238 0.4400 0 9
-31.1723 -24.6989 3.3667 0.0610 0 9
-32.6699 -26.9721 3.5864 0.4467 0 9
-35.6459 -31.9233 4.0508 0.2246 0 9
-35.8066 -33.3882 4.1444 0.1278 0 9
-34.2742 -33.2721 4.0437 0.0918 0 9
-33.9404 -34.3000 4.0848 0.3979 0 9
-32.2636 -33.9438 3.9644 0.1055 0 9
-7.1903 -8.2011 0.9233 0.9470 0 9
-6.5850 -7.8225 0.8656 0.3177 0 9
-6.7721 -8.3811 0.9122 0.9586 0 9
-6.5666 -8.4696 0.9072 0.9638 0 9
-6.3632 -8.5571 0.9027 0.9686 0 9
-7.9923 -11.2117 1.1656 0.8796 0 9
-7.8259 -11.4588 1.1747 0.8727 0 9
-7.5840 -11.5986 1.1731 0.8212 0 9
-7.2665 -11.6163 1.1599 0.8306 0 9
-6.9558 -11.6334 1.1474 0.8397 0 9
-6.6515 -11.6499 1.1356 0.8484 0 9
-5.5376 -10.1684 0.9802 0.9094 0 9
-5.2924 -10.2012 0.9729 0.9162 0 9
-5.0507 -10.2336 0.9661 0.9227 0 9
-4.8124 -10.2656 0.9598 0.9287 0 9
-4.5771 -10.2972 0.9539 0.9344 0 9
-4.3445 -10.3285 0.9485 0.9397 0 9
-4.1145 -10.3596 0.9436 0.9446 0 9
-3.7573 -10.0444 0.9078 0.2408 0 9
-3.6611 -10.4209 0.9350 0.9533 0 9
-3.3374 -15.1207 1.3108 0.4564 0 9
-2.9213 -14.6268 1.2627 0.4738 0 9
-2.7779 -17.5568 1.5047 0.9914 0 9
-2.3390 -16.9892 1.4518 0.5679 0 9
-2.0783 -17.7261 1.5108 0.9874 0 9
3.0131 -20.6875 1.7697 0.0810 0 1
3.2585 -19.6011 1.6821 0.9866 0 1
3.6633 -19.5928 1.6873 0.9835 0 1
4.0791 -19.6243 1.6968 0.9800 0 1
4.4812 -19.5753 1.7000 0.9769 0 1
4.6321 -18.5152 1.6157 0.9718 0 1
5.0914 -18.7424 1.6441 0.5677 0 1
5.7507 -19.6029 1.7294 0.9553 0 1
6.1816 -19.6036 1.7400 0.9498 0 1
6.6786 -19.7843 1.7677 0.9398 0 1
7.0246 -19.5061 1.7551 0.1268 0 1
7.4818 -19.5344 1.7708 0.1038 0 1
7.8413 -19.3022 1.7637 0.1042 0 1
8.4500 -19.6579 1.8113 0.4039 0 1
8.8971 -19.6022 1.8223 0.9166 0 1
9.4062 -19.6637 1.8452 0.9085 0 1
9.8914 -19.6531 1.8625 0.9001 0 1
10.3860 -19.6423 1.8809 0.8913 0 1
10.8907 -19.6312 1.9004 0.8821 0 1
11.4061 -19.6199 1.9212 0.8726 0 1
14.3950 -23.6535 2.3440 0.8620 0 1
15.1037 -23.7304 2.3812 0.8518 0 1
15.7736 -23.7167 2.4112 0.8412 0 1
16.4064 -23.6240 2.4348 0.8303 0 1
17.1099 -23.6096 2.4683 0.8190 0 1
17.1870 -22.7396 2.4130 0.0892 0 0
16.7952 -21.3164 2.2973 0.0937 0 0
16.4445 -20.0296 2.1938 0.0981 0 0
16.1292 -18.8593 2.1007 0.1024 0 0
12.3353 -13.8496 1.5700 0.9892 0 9
15.6059 -16.8281 1.9428 0.1138 0 0
15.3909 -15.9411 1.8758 0.1178 0 0
15.2284 -15.1512 1.8185 0.1301 0 0
15.0956 -14.4269 1.7676 0.1338 0 0
14.9735 -13.7451 1.7206 0.1375 0 0
14.9690 -13.1964 1.6893 0.1718 0 0
14.9883 -12.6872 1.6623 0.1746 0 0
15.0097 -12.1960 1.6372 0.1773 0 0
15.0333 -11.7213 1.6137 0.1799 0 0
14.9431 -11.1754 1.5796 0.1450 0 0
14.8223 -10.6272 1.5439 0.1483 0 0
14.7099 -10.1052 1.5108 0.1516 0 0
14.5196 -9.5506 1.4712 0.1548 0 8
10.6003 -6.6712 1.0603 0.8655 0 9
10.6445 -6.4040 1.0516 0.8420 0 9
10.8594 -6.2395 1.0602 0.6282 0 9
11.2136 -6.1465 1.0825 0.5004 0 9
14.0962 -7.3620 1.3462 0.1691 0 8
13.4116 -6.6648 1.2678 0.6343 0 9
13.4898 -6.3688 1.2628 0.1742 0 19
13.9046 -6.2260 1.2897 0.1765 0 8
13.8493 -5.8699 1.2733 0.1788 0 8
14.1210 -5.6530 1.2876 0.3895 0 8
14.2751 -5.3843 1.2915 0.1830 0 7
14.2290 -5.0426 1.2779 0.1850 0 7
14.1864 -4.7087 1.2654 0.1868 0 7
14.1470 -4.3819 1.2537 0.1885 0 7
14.1107 -4.0617 1.2430 0.1902 0 7
14.0775 -3.7474 1.2332 0.1917 0 7
14.0471 -3.4385 1.2242 0.1931 0 7
14.0195 -3.1344 1.2161 0.1944 0 7
13.9946 -2.8347 1.2088 0.1956 0 7
13.9723 -2.5390 1.2022 0.1966 0 7
13.9526 -2.2466 1.1963 0.1976 0 7
13.9353 -1.9573 1.1912 0.1984 0 7
13.9205 -1.6706 1.1869 0.1992 0 7
13.9080 -1.3862 1.1832 0.1998 0 7
13.8979 -1.1035 1.1802 0.2003 0 7
13.8901 -0.8223 1.1779 0.2007 0 7
13.8846 -0.5421 1.1763 0.2010 0 7
13.8813 -0.2627 1.1753 0.2011 0 7
13.8803 0.0164 1.1750 0.2012 0 7
13.8816 0.2955 1.1754 0.2011 0 7
13.8851 0.5750 1.1764 0.2009 0 7
13.8909 0.8552 1.1781 0.2006 0 7
13.8990 1.1366 1.1805 0.2002 0 7
13.9094 1.4195 1.1836 0.1997 0 7
13.9221 1.7042 1.1874 0.1991 0 7
13.9372 1.9912 1.1918 0.1983 0 7
13.9548 2.2808 1.1970 0.1975 0 7
13.4599 2.4787 1.1586 0.1965 0 8
13.4817 2.7640 1.1650 0.1954 0 8
13.5059 3.0531 1.1722 0.1942 0 8
11.4242 2.8250 0.9962 0.5871 0 9
11.1511 2.9966 0.9775 0.9301 0 9
10.9769 3.1877 0.9676 0.9143 0 9
10.9505 3.4202 0.9712 0.8258 0 9
10.9901 3.6766 0.9810 0.8264 0 9
13.7097 4.8950 1.2323 0.1847 0 8
13.7546 5.2251 1.2456 0.1828 0 8
13.8028 5.5635 1.2598 0.1807 0 8
13.8547 5.9108 1.2751 0.1785 0 8
13.9106 6.2681 1.2916 0.1763 0 8
14.0914 6.6936 1.3206 0.1789 0 0
14.1474 7.0722 1.3389 0.1765 0 0
14.1644 7.4402 1.3544 0.8791 0 8
14.1532 7.8013 1.3681 0.8693 0 8
14.1420 8.1700 1.3826 0.8593 0 8
14.1684 8.5697 1.4017 0.1605 0 8
14.2652 9.0248 1.4290 0.1550 0 8
14.3695 9.5006 1.4583 0.1532 0 8
12.0532 8.3221 1.2399 0.9433 0 9
11.8054 8.5064 1.2318 0.9495 0 9
14.6060 10.9771 1.5467 0.1637 0 8
14.6431 11.4728 1.5747 0.1607 0 8
14.6753 11.9818 1.6038 0.1602 0 8
14.7157 12.5162 1.6354 0.1559 0 8
14.8914 13.1906 1.6840 0.1558 0 0
14.9594 13.7974 1.7228 0.1416 0 0
15.0557 14.4570 1.7669 0.1381 0 0
15.1975 15.1920 1.8191 0.1212 0 0
15.3962 16.0223 1.8810 0.1172 0 0
15.6147 16.9176 1.9489 0.1104 0 0
15.8762 17.9102 2.0261 0.1062 0 0
16.1645 18.9913 2.1112 0.1019 0 0
16.4838 20.1743 2.2054 0.0976 0 0
16.8389 21.4760 2.3102 0.0931 0 0
17.2360 22.9167 2.4274 0.0886 0 0
17.6826 24.5215 2.5592 0.0841 0 0
18.1882 26.3223 2.7085 0.0794 0 0
18.7649 28.3593 2.8787 0.0748 0 0
18.3091 28.9170 2.8974 0.8299 0 11
17.4944 28.8996 2.8598 0.8408 0 11
16.7001 28.8827 2.8243 0.8514 0 11
15.9116 28.8420 2.7885 0.5045 0 11
15.1678 28.8501 2.7592 0.8715 0 11
14.4272 28.8343 2.7294 0.8810 0 11
13.6738 28.7590 2.6957 0.8902 0 11
15.0316 33.3267 3.0949 0.8969 0 1
14.2661 33.4054 3.0749 0.4185 0 1
14.1864 35.1595 3.2095 0.4023 0 1
14.0979 37.0705 3.3574 0.3846 0 1
12.9922 36.3460 3.2675 0.3653 0 1
13.0481 38.9558 3.4778 0.9377 0 1
12.1772 38.9380 3.4536 0.9443 0 1
11.3180 38.9205 3.4312 0.9505 0 1
11.1180 41.3124 3.6217 0.2902 0 1
-4.1985 13.5724 1.2027 0.3551 0 9
-4.2540 12.8322 1.1444 0.3731 0 9
-4.1853 11.8235 1.0617 0.7048 0 9
-4.4815 11.8948 1.0760 0.6954 0 9
-4.7918 11.9824 1.0924 0.8496 0 9
-5.0945 12.0320 1.1061 0.8391 0 9
-5.4049 12.0827 1.1205 0.8283 0 9
-5.7237 12.1348 1.1358 0.8171 0 9
-6.0513 12.1882 1.1519 0.8057 0 9
-7.1379 13.6792 1.3062 0.7507 0 9
-7.4880 13.6728 1.3197 0.7614 0 9
-6.1337 10.6843 1.0429 0.9868 0 9
-6.3680 10.5933 1.0463 0.9836 0 9
-6.6039 10.5018 1.0502 0.9800 0 9
-5.7695 8.7782 0.8892 0.4525 0 9
-5.5957 8.1519 0.8370 0.4293 0 9
-5.7159 7.9784 0.8308 0.3176 0 9
-7.5298 10.0762 1.0648 0.9791 0 9
-7.7629 9.9639 1.0692 0.9750 0 9
-7.9980 9.8506 1.0741 0.9706 0 9
-9.2751 10.1114 1.1615 0.7669 0 9
-9.0705 9.4979 1.1118 0.8487 0 9
-9.1531 9.2065 1.0990 0.8586 0 9
-8.0759 7.8028 0.9506 0.5147 0 9
-7.9711 7.3976 0.9206 0.5315 0 9
-7.8728 7.0171 0.8928 0.5480 0 9
-7.7802 6.6589 0.8669 0.5644 0 9
-7.6929 6.3207 0.8428 0.5805 0 9
-10.4672 8.2534 1.1284 0.5374 0 9
-8.1150 6.1381 0.8613 0.5573 0 9
-8.0965 5.8720 0.8467 0.5669 0 9
-8.0788 5.6150 0.8329 0.5763 0 9
-9.1060 6.0611 0.9260 0.6751 0 9
-9.4314 6.0077 0.9466 0.6604 0 9
-9.7719 5.9518 0.9686 0.6454 0 9
-11.2019 6.5177 1.0971 0.9570 0 9
-11.3808 6.3191 1.1020 0.9528 0 9
-30.9905 16.4011 2.9682 0.0355 0 9
-32.9379 16.5929 3.1221 0.3111 0 9
-32.7420 15.6771 3.0730 0.3161 0 9
-33.3147 15.1358 3.0976 0.1049 0 9
-31.1934 13.4223 2.8747 0.0378 0 9
-32.9314 13.3921 3.0094 0.1360 0 9
-11.6850 3.9493 1.0441 0.6088 0 5
-30.2068 8.8736 2.6651 0.3252 0 9
-30.2571 8.2314 2.6544 0.3265 0 9
-30.2933 7.5906 2.6437 0.3614 0 9
-30.2032 6.9259 2.6231 0.3643 0 9
-31.2696 6.5117 2.7038 0.2985 0 9
-31.1791 5.8415 2.6853 0.3970 0 9
-31.9911 5.3303 2.7455 0.1787 0 9
-33.1348 4.8384 2.8347 0.1731 0 9
-40.1635 5.0424 3.4266 0.4793 0 9
-38.2654 4.0247 3.2571 0.0840 0 9
-38.1658 3.2400 3.2425 0.0844 0 9
-38.7981 2.5094 3.2912 0.0659 0 9
-41.1685 1.0038 3.4861 0.2694 0 9
-40.1583 0.1716 3.3996 0.2770 0 9
-35.1269 -0.5561 2.9740 0.4004 0 9
-34.3470 -1.2347 2.9094 0.0770 0 9
-35.5791 -1.9958 3.0166 0.2100 0 9
-37.3866 -2.8521 3.1741 0.2016 0 9
-38.1884 -5.2434 3.2631 0.5749 0 9
-38.1280 -6.0183 3.2676 0.5741 0 9
-37.9273 -6.7707 3.2614 0.6104 0 9
-37.6314 -7.5014 3.2483 0.6128 0 9
-30.8080 -6.7877 2.6706 0.2998 0 9
-28.2943 -18.9297 2.1110 0.2269 0 9
-27.9504 -19.5243 2.1142 0.2265 0 9
-27.4176 -19.9840 2.1039 0.1160 0 9
-31.7819 -24.1581 2.4756 0.0819 0 9
-30.7478 -24.3626 2.4327 0.0833 0 9
-32.4904 -26.8239 2.6127 0.3957 0 9
-35.6912 -31.9638 2.9711 0.3021 0 9
-35.2736 -32.8914 2.9907 0.4029 0 9
-34.9195 -33.8986 3.0179 0.4750 0 9
-33.7677 -34.1255 2.9770 0.4158 0 9
-33.0460 -34.7670 2.9744 0.2827 0 9
-32.8424 -35.9741 3.0206 0.3701 0 9
-7.1885 -8.1990 0.6762 0.9488 0 9
-11.8088 -14.0281 1.1371 0.8033 0 9
-8.4214 -10.4223 0.8309 0.9053 0 9
-8.2623 -10.6568 0.8362 0.8996 0 9
-8.1013 -10.8945 0.8419 0.8935 0 9
-7.9381 -11.1356 0.8480 0.8870 0 9
-7.7723 -11.3804 0.8546 0.8802 0 9
-7.6041 -11.6293 0.8616 0.8730 0 9
-7.3430 -11.7386 0.8586 0.8233 0 9
-7.0282 -11.7546 0.8493 0.8324 0 9
-7.0404 -12.3309 0.8805 0.6275 0 9
-5.5570 -10.2039 0.7205 0.9166 0 9
-5.3150 -10.2447 0.7157 0.9227 0 9
-5.8306 -11.8136 0.8169 0.6137 0 9
-5.4996 -11.7315 0.8034 0.6877 0 9
-5.2659 -14.0773 0.9320 0.3366 0 9
-5.1240 -14.5851 0.9586 0.2521 0 9
-3.3720 -15.2776 0.9702 0.4524 0 9
2.9209 -23.3347 1.4583 0.0721 0 1
2.9389 -20.1785 1.2645 0.1378 0 1
3.1555 -18.9818 1.1932 0.8494 0 1
3.5101 -18.7734 1.1843 0.8594 0 1
3.8618 -18.5787 1.1767 0.9671 0 1
4.2483 -18.5579 1.1806 0.9727 0 1
4.6422 -18.5557 1.1861 0.9733 0 1
5.0668 -18.6517 1.1985 0.7642 0 1
5.6387 -19.2209 1.2421 0.3856 0 1
6.2361 -19.7767 1.2859 0.9479 0 1
6.7505 -19.9972 1.3088 0.9464 0 1
7.2172 -20.0409 1.3209 0.9378 0 1
7.6764 -20.0426 1.3309 0.9307 0 1
8.0920 -19.9192 1.3332 0.3770 0 1
8.5128 -19.8038 1.3367 0.9119 0 1
8.9168 -19.6455 1.3378 0.9204 0 1
9.4077 -19.6668 1.3519 0.9099 0 1
9.8930 -19.6563 1.3646 0.9014 0 1
10.3877 -19.6454 1.3780 0.8926 0 1
10.8924 -19.6344 1.3923 0.8834 0 1
11.3895 -19.5912 1.4052 0.8738 0 1
14.4042 -23.6688 1.7181 0.8633 0 1
14.8046 -23.2606 1.7098 0.0923 0 0
14.5205 -21.8327 1.6259 0.0971 0 0
14.2027 -20.4510 1.5440 0.0933 0 0
13.9512 -19.2510 1.4743 0.1074 0 0
13.7814 -18.2336 1.4173 0.1128 0 0
13.6440 -17.3170 1.3671 0.1232 0 0
13.5170 -16.4639 1.3209 0.1253 0 0
13.3815 -15.6466 1.2767 0.1356 0 0
12.3801 -13.9000 1.1543 0.9872 0 9
12.6920 -13.6860 1.1575 0.9845 0 9
5.8988 -6.1098 0.5267 0.4219 0 5
13.1783 -13.1114 1.1528 0.1848 0 0
13.2179 -12.6324 1.1338 0.1879 0 0
13.2578 -12.1702 1.1160 0.1909 0 0
13.2983 -11.7236 1.0993 0.1938 0 0
13.2341 -11.2023 1.0752 0.1563 0 0
8.4438 -6.8609 0.6747 0.6683 0 9
8.5587 -6.6731 0.6730 0.6669 0 9
8.7952 -6.5776 0.6810 0.5960 0 9
8.9688 -6.4303 0.6843 0.3272 0 9
9.2381 -6.3463 0.6950 0.3222 0 9
10.5624 -6.9477 0.7840 0.6765 0 9
10.5240 -6.6232 0.7711 0.8425 0 9
10.7883 -6.4905 0.7807 0.8429 0 9
10.9145 -6.2711 0.7806 0.7954 0 9
12.4807 -6.8411 0.8826 0.4393 0 19
12.0727 -6.3052 0.8446 0.1911 0 19
12.4578 -6.1908 0.8626 0.1937 0 8
12.4555 -5.8805 0.8541 0.4781 0 8
12.6950 -5.6844 0.8625 0.4266 0 8
12.8260 -5.4362 0.8638 0.2008 0 7
12.7949 -5.1221 0.8546 0.2029 0 7
12.7657 -4.8150 0.8461 0.2050 0 7
12.7387 -4.5145 0.8381 0.2069 0 7
12.7137 -4.2199 0.8307 0.2088 0 7
12.6904 -3.9308 0.8238 0.2105 0 7
12.6691 -3.6467 0.8175 0.2122 0 7
12.6494 -3.3673 0.8117 0.2137 0 7
12.6314 -3.0920 0.8064 0.2151 0 7
12.6151 -2.8204 0.8016 0.2164 0 7
12.6003 -2.5523 0.7972 0.2176 0 7
12.5871 -2.2872 0.7933 0.2186 0 7
12.5753 -2.0249 0.7899 0.2196 0 7
12.5651 -1.7649 0.7868 0.2204 0 7
12.5562 -1.5069 0.7842 0.2212 0 7
12.5488 -1.2507 0.7820 0.2218 0 7
12.5428 -0.9959 0.7802 0.2223 0 7
12.5381 -0.7422 0.7789 0.2227 0 7
12.5348 -0.4894 0.7779 0.2230 0 7
12.5329 -0.2372 0.7773 0.2231 0 7
12.5322 0.0148 0.7771 0.2232 0 7
12.5330 0.2668 0.7774 0.2231 0 7
12.5351 0.5191 0.7780 0.2229 0 7
12.5386 0.7720 0.7790 0.2226 0 7
12.5434 1.0258 0.7804 0.2222 0 7
12.5496 1.2807 0.7823 0.2217 0 7
12.5572 1.5371 0.7845 0.2211 0 7
12.5662 1.7953 0.7872 0.2203 0 7
12.5766 2.0555 0.7902 0.2195 0 7
12.5885 2.3182 0.7937 0.2185 0 7
12.1376 2.4884 0.7683 0.2174 0 8
12.1520 2.7471 0.7726 0.2162 0 8
12.0701 2.9848 0.7710 0.2196 0 19
12.1441 3.2635 0.7798 0.2135 0 19
11.7594 3.4150 0.7593 0.8771 0 9
11.8108 3.6889 0.7673 0.2103 0 19
12.2479 4.0974 0.8009 0.2086 0 8
12.2724 4.3818 0.8081 0.2067 0 8
12.2986 4.6720 0.8158 0.2048 0 8
12.3268 4.9685 0.8242 0.2027 0 8
12.3571 5.2719 0.8331 0.2005 0 8
12.3896 5.5828 0.8427 0.1982 0 8
12.4244 5.9017 0.8529 0.1958 0 8
12.4616 6.2294 0.8639 0.1934 0 8
12.6121 6.6249 0.8834 0.1925 0 0
12.6487 6.9721 0.8956 0.1899 0 0
12.6881 7.3301 0.9087 0.1871 0 0
12.7302 7.6998 0.9226 0.1843 0 0
12.7754 8.0823 0.9374 0.1814 0 0
12.8238 8.4786 0.9533 0.1784 0 0
12.8756 8.8900 0.9703 0.1753 0 0
12.9312 9.3177 0.9883 0.1720 0 0
12.9886 9.7617 1.0075 0.1740 0 0
13.0429 10.2191 1.0275 0.1707 0 0
13.1013 10.6967 1.0488 0.1672 0 0
13.1025 11.1441 1.0666 0.1829 0 0
13.1033 11.6068 1.0855 0.1797 0 0
13.1060 12.0879 1.1056 0.1764 0 0
13.1105 12.5892 1.1271 0.1731 0 0
13.1230 13.1183 1.1506 0.1670 0 0
13.1446 13.6791 1.1764 0.1580 0 0
13.1756 14.2749 1.2046 0.1543 0 0
13.2267 14.9212 1.2365 0.1309 0 0
13.3564 15.6920 1.2778 0.1266 0 0
13.4977 16.5198 1.3229 0.1223 0 0
13.6644 17.4273 1.3733 0.1150 0 0
13.8541 18.4202 1.4292 0.1105 0 0
14.0633 19.5024 1.4910 0.1059 0 0
14.2947 20.6876 1.5593 0.1013 0 0
14.5522 21.9928 1.6353 0.0965 0 0
14.8401 23.4384 1.7202 0.0918 0 0
15.1638 25.0500 1.8158 0.0870 0 0
15.5302 26.8597 1.9240 0.0821 0 0
15.9225 28.8615 2.0440 0.8632 0 11
15.1474 28.8113 2.0185 0.8731 0 11
14.4250 28.8297 1.9991 0.8826 0 11
13.6912 28.7958 1.9772 0.4482 0 11
12.9897 28.7993 1.9591 0.9006 0 11
12.2928 28.7845 1.9409 0.9090 0 11
11.5948 28.7359 1.9215 0.9171 0 11
11.0135 28.9599 1.9213 0.0411 0 11
13.9296 38.9682 2.5662 0.9325 0 1
13.0462 38.9502 2.5472 0.9394 0 1
12.1754 38.9325 2.5295 0.9460 0 1
11.5381 39.6771 2.5623 0.3050 0 1
-4.2032 12.6788 0.8283 0.3783 0 9
-4.2554 12.0216 0.7908 0.3962 0 9
-4.5185 11.9929 0.7947 0.8569 0 9
-4.8158 12.0423 0.8042 0.8467 0 9
-5.1203 12.0929 0.8143 0.8362 0 9
-5.4327 12.1448 0.8250 0.8254 0 9
-5.7534 12.1979 0.8363 0.8143 0 9
-6.0832 12.2525 0.8483 0.8028 0 9
-7.1209 13.6468 0.9545 0.7537 0 9
-7.5246 13.7395 0.9714 0.7406 0 9
-6.1372 10.6904 0.7644 0.9879 0 9
-6.3716 10.5994 0.7669 0.9847 0 9
-6.6077 10.5078 0.7697 0.9811 0 9
-6.8431 10.4116 0.7726 0.9901 0 9
-5.5124 8.0306 0.6040 0.4365 0 9
-5.7833 8.0725 0.6158 0.3144 0 9
-7.5324 10.0795 0.7803 0.9804 0 9
-7.7655 9.9672 0.7835 0.9763 0 9
-8.0006 9.8539 0.7871 0.9719 0 9
-9.1996 10.8763 0.8833 0.6566 0 9
-33.0543 36.0352 3.0323 0.0650 0 9
-8.1471 8.1947 0.7166 0.5010 0 9
-8.0371 7.7653 0.6930 0.5180 0 9
-7.9340 7.3632 0.6712 0.5348 0 9
-7.8372 6.9854 0.6510 0.5514 0 9
-7.7461 6.6297 0.6322 0.5678 0 9
-7.6601 6.2937 0.6148 0.5839 0 9
-10.5453 8.3149 0.8327 0.5343 0 9
-7.9155 5.9873 0.6154 0.5722 0 9
-8.4773 6.1482 0.6494 0.7063 0 9
-8.7751 6.0989 0.6627 0.6921 0 9
-9.0857 6.0475 0.6768 0.6777 0 9
-9.4099 5.9939 0.6918 0.6630 0 9
-9.7490 5.9379 0.7079 0.6480 0 9
-10.1044 5.8792 0.7249 0.6327 0 9
-32.1070 17.8273 2.2773 0.3298 0 9
-31.7828 16.8204 2.2299 0.2436 0 9
-30.7648 15.4982 2.1361 0.1214 0 9
-32.2000 15.4176 2.2138 0.3551 0 9
-33.0409 15.0114 2.2504 0.4195 0 9
-33.7155 14.5074 2.2760 0.4148 0 9
-35.1549 14.2963 2.3533 0.2043 0 9
-38.1445 11.2053 2.4653 0.0897 0 9
-30.5780 8.3186 1.9650 0.3418 0 9
-31.3899 7.8654 2.0067 0.1346 0 9
-31.8315 7.2993 2.0251 0.5219 0 9
-31.7993 6.6220 2.0142 0.3876 0 9
-31.7232 5.9434 2.0014 0.3901 0 9
-38.9636 6.4920 2.4494 0.3648 0 9
-30.5815 4.4656 1.9165 0.1230 0 9
-40.0521 5.0284 2.5031 0.4766 0 9
-38.8280 4.0838 2.4210 0.2802 0 9
-31.3517 2.6615 1.9511 0.1472 0 9
-39.3783 2.5469 2.4470 0.4622 0 9
-39.2714 1.7480 2.4376 0.0681 0 9
-34.5656 0.8428 2.1441 0.0567 0 9
-35.5270 0.1518 2.2030 0.4003 0 9
-34.6941 -0.5492 2.1517 0.3936 0 9
-34.2846 -1.2325 2.1274 0.3259 0 9
-34.6486 -1.9436 2.1519 0.2263 0 9
-35.4675 -2.7057 2.2057 0.3097 0 9
-38.8718 -4.5431 2.4268 0.1842 0 9
-37.1120 -5.0956 2.3229 0.4741 0 9
-36.6118 -5.7789 2.2984 0.4616 0 9
-36.5832 -6.5307 2.3044 0.4604 0 9
-36.4675 -7.2694 2.3058 0.4314 0 9
-36.2879 -7.9952 2.3042 0.4317 0 9
-28.0058 -18.7367 1.3286 0.1779 0 9
-28.3610 -19.8110 1.3641 0.3339 0 9
-38.9730 -28.4062 1.9016 0.3536 0 9
-32.3615 -24.5986 1.6029 0.1259 0 9
-32.6382 -25.8604 1.6420 0.3174 0 9
-32.0990 -26.5008 1.6413 0.4310 0 9
-31.9495 -27.4758 1.6616 0.1275 0 9
-32.0107 -28.6678 1.6944 0.3170 0 9
-34.6533 -32.3127 1.8683 0.1297 0 9
-34.5648 -33.5545 1.8995 0.3039 0 9
-33.4175 -33.7715 1.8733 0.1416 0 9
-32.8172 -34.5262 1.8783 0.1480 0 9
-32.5692 -35.6749 1.9048 0.4720 0 9
-31.8001 -36.2707 1.9021 0.3105 0 9
-30.9237 -36.7353 1.8934 0.3119 0 9
-8.3659 -10.3536 0.5249 0.9123 0 9
-8.2076 -10.5861 0.5282 0.9066 0 9
-8.0473 -10.8217 0.5318 0.9005 0 9
-7.8847 -11.0607 0.5356 0.8941 0 9
-7.7197 -11.3033 0.5397 0.8872 0 9
-7.5521 -11.5498 0.5442 0.8800 0 9
-7.3818 -11.8006 0.5489 0.8725 0 9
-7.1021 -11.8780 0.5457 0.8247 0 9
-7.0341 -12.3200 0.5594 0.6288 0 9
-6.6222 -12.1599 0.5460 0.6443 0 9
-6.2252 -11.9991 0.5330 0.5988 0 9
-5.8275 -11.8074 0.5192 0.6148 0 9
-5.4498 -11.6252 0.5063 0.6305 0 9
-7.1998 -16.1978 0.6990 0.6072 0 9
-5.3333 -14.2575 0.6002 0.5738 0 9
-5.0304 -14.3185 0.5984 0.4000 0 9
2.6184 -20.9180 0.8312 0.1102 0 1
2.8984 -19.9001 0.7930 0.1155 0 1
3.1969 -19.2307 0.7687 0.7213 0 1
3.5276 -18.8670 0.7568 0.8561 0 1
3.8734 -18.6346 0.7505 0.9653 0 1
4.2588 -18.6036 0.7525 0.9785 0 1
4.6539 -18.6023 0.7561 0.9743 0 1
5.0493 -18.5874 0.7595 0.7677 0 1
5.5678 -18.9793 0.7799 0.5612 0 1
6.1810 -19.6018 0.8104 0.9537 0 1
6.6770 -19.7795 0.8232 0.9427 0 1
7.2171 -20.0407 0.8399 0.9389 0 1
7.6762 -20.0423 0.8463 0.9318 0 1
8.1254 -20.0017 0.8513 0.9237 0 1
8.5116 -19.8012 0.8499 0.9131 0 1
8.8995 -19.6074 0.8491 0.9093 0 1
9.3748 -19.5980 0.8566 0.9108 0 1
9.8786 -19.6276 0.8664 0.9022 0 1
10.3726 -19.6170 0.8750 0.8939 0 1
10.8764 -19.6056 0.8841 0.8847 0 1
11.3454 -19.5154 0.8901 0.8750 0 1
11.8694 -19.5037 0.9003 0.8651 0 1
11.9168 -18.7234 0.8751 0.1193 0 0
11.8169 -17.7676 0.8414 0.1371 0 0
11.7788 -16.9607 0.8142 0.1405 0 0
11.7343 -16.1919 0.7885 0.1451 0 0
11.6755 -15.4474 0.7635 0.1372 0 0
11.6011 -14.7240 0.7392 0.1442 0 0
11.5557 -14.0749 0.7181 0.1484 0 0
11.5591 -13.5156 0.7013 0.1938 0 0
11.6258 -13.0531 0.6892 0.1971 0 0
11.6866 -12.6018 0.6777 0.2001 0 0
5.8915 -6.1021 0.3345 0.9311 0 5
11.8010 -11.7411 0.6564 0.2066 0 0
11.7655 -11.2443 0.6417 0.1667 0 0
11.7160 -10.7548 0.6271 0.1706 0 0
11.6696 -10.2877 0.6134 0.1744 0 0
11.6262 -9.8413 0.6006 0.1781 0 0
8.3054 -6.7485 0.4220 0.2652 0 9
8.3134 -6.4819 0.4157 0.8399 0 9
8.7306 -6.5293 0.4299 0.5559 0 9
8.5920 -6.1603 0.4169 0.7682 0 9
8.8557 -6.0836 0.4237 0.5919 0 9
11.3500 -7.4658 0.5357 0.1985 0 8
10.9377 -6.8836 0.5096 0.2016 0 19
10.9126 -6.5653 0.5022 0.2046 0 19
10.9558 -6.2949 0.4982 0.5155 0 19
11.2488 -6.1658 0.5058 0.2103 0 8
11.2273 -5.8636 0.4995 0.2129 0 8
11.4920 -5.7109 0.5060 0.4629 0 8
11.6152 -5.4838 0.5065 0.2180 0 7
11.5967 -5.1926 0.5010 0.2204 0 7
11.5795 -4.9079 0.4959 0.2226 0 7
11.5633 -4.6290 0.4911 0.2248 0 7
11.5481 -4.3558 0.4867 0.2269 0 7
11.5341 -4.0875 0.4825 0.2288 0 7
11.5210 -3.8240 0.4787 0.2307 0 7
11.5089 -3.5648 0.4751 0.2324 0 7
11.4977 -3.3095 0.4718 0.2340 0 7
11.4874 -3.0579 0.4688 0.2355 0 7
11.4779 -2.8096 0.4660 0.2370 0 7
11.4694 -2.5643 0.4634 0.2383 0 7
11.4616 -2.3216 0.4611 0.2394 0 7
11.4546 -2.0815 0.4591 0.2405 0 7
11.4484 -1.8434 0.4572 0.2415 0 7
11.4430 -1.6073 0.4557 0.2423 0 7
11.4383 -1.3727 0.4543 0.2431 0 7
11.4344 -1.1396 0.4531 0.2437 0 7
11.4312 -0.9076 0.4522 0.2442 0 7
11.4288 -0.6766 0.4514 0.2446 0 7
11.4270 -0.4462 0.4509 0.2449 0 7
11.4260 -0.2162 0.4506 0.2450 0 7
5.6746 0.0067 0.2238 0.9242 184 4
11.4261 0.2432 0.4507 0.2450 0 7
11.4272 0.4732 0.4510 0.2448 0 7
11.4290 0.7037 0.4515 0.2445 0 7
11.4316 0.9348 0.4523 0.2441 0 7
11.4348 1.1669 0.4532 0.2436 0 7
11.4389 1.4002 0.4544 0.2430 0 7
11.4436 1.6349 0.4558 0.2422 0 7
11.4491 1.8713 0.4575 0.2414 0 7
11.4554 2.1095 0.4593 0.2404 0 7
11.3863 2.3344 0.4583 0.1806 0 8
11.0477 2.4974 0.4466 0.2381 0 8
11.0561 2.7340 0.4491 0.2368 0 8
11.0208 2.9616 0.4500 0.2395 0 19
11.0377 3.2054 0.4532 0.2338 0 19
11.0486 3.4508 0.4564 0.2322 0 19
10.7216 3.5868 0.4458 0.2305 0 19
11.1106 3.9670 0.4652 0.2286 0 8
11.1243 4.2259 0.4692 0.2266 0 8
11.1390 4.4897 0.4736 0.2246 0 8
11.1547 4.7589 0.4782 0.2224 0 8
11.1715 5.0339 0.4832 0.2201 0 8
11.1895 5.3151 0.4885 0.2177 0 8
11.2086 5.6031 0.4941 0.2152 0 8
11.2290 5.8984 0.5001 0.2126 0 8
11.2508 6.2015 0.5066 0.2099 0 8
11.3755 6.5718 0.5180 0.2127 0 0
11.3940 6.8916 0.5251 0.2062 0 0
11.4152 7.2218 0.5326 0.2032 0 0
11.4378 7.5623 0.5407 0.2002 0 0
11.4620 7.9139 0.5492 0.1971 0 0
11.4879 8.2777 0.5583 0.1939 0 0
11.5156 8.6546 0.5680 0.1906 0 0
11.5453 9.0457 0.5783 0.1872 0 0
11.5770 9.4522 0.5893 0.1837 0 0
11.6109 9.8755 0.6010 0.1801 0 0
11.6473 10.3171 0.6135 0.1764 0 0
11.6750 10.7681 0.6263 0.1929 0 0
11.6571 11.1936 0.6373 0.1949 0 0
11.6366 11.6325 0.6488 0.1914 0 0
11.6164 12.0887 0.6611 0.1879 0 0
11.5962 12.5638 0.6742 0.1842 0 0
11.5769 13.0600 0.6882 0.1751 0 0
11.5644 13.5868 0.7035 0.1713 0 0
11.5526 14.1392 0.7200 0.1674 0 0
11.5412 14.7195 0.7375 0.1634 0 0
11.6104 15.4370 0.7617 0.1353 0 0
11.6894 16.2104 0.7880 0.1307 0 0
11.7801 17.0484 0.8171 0.1230 0 0
11.8903 17.9699 0.8496 0.1183 0 0
12.0114 18.9707 0.8854 0.1135 0 0
12.1448 20.0628 0.9247 0.1087 0 0
12.2925 21.2601 0.9683 0.1038 0 0
12.4569 22.5800 1.0169 0.0988 0 0
12.6407 24.0436 1.0711 0.0938 0 0
12.8475 25.6773 1.1321 0.0888 0 0
13.0905 27.5326 1.2021 0.0854 0 0
12.9723 28.7607 1.2441 0.9017 0 11
12.2909 28.7800 1.2340 0.9102 0 11
11.5930 28.7315 1.2217 0.9183 0 11
10.9342 28.7514 1.2129 0.9260 0 11
10.2604 28.7033 1.2020 0.9334 0 11
9.6209 28.7236 1.1945 0.9403 0 11
8.9787 28.7100 1.1862 0.9469 0 11
11.7845 40.5247 1.6641 0.2989 0 1
12.5907 46.7846 1.9104 0.8811 0 9
-7.1310 14.3627 0.6323 0.6999 0 9
-7.2787 13.9492 0.6204 0.7133 0 9
-5.9075 10.7868 0.4850 0.9913 0 9
-6.1406 10.6964 0.4863 0.9885 0 9
-6.3752 10.6054 0.4879 0.9853 0 9
-6.6114 10.5138 0.4897 0.9816 0 9
-5.4821 8.3410 0.3936 0.4265 0 9
-5.4412 7.9268 0.3791 0.5678 0 9
-5.8403 8.1520 0.3954 0.3900 0 9
-7.5349 10.0829 0.4963 0.9812 0 9
-7.7681 9.9705 0.4984 0.9771 0 9
-8.7008 10.7162 0.5443 0.6784 0 9
-9.0801 10.7350 0.5544 0.6660 0 9
-9.4740 10.7545 0.5651 0.6534 0 9
-34.9309 35.1349 1.9536 0.1344 0 9
-35.2412 34.0497 1.9322 0.5846 0 9
-35.4406 32.8909 1.9065 0.4248 0 9
-7.8350 6.7057 0.4067 0.6014 0 9
-7.7675 6.3820 0.3964 0.6170 0 9
-34.0489 26.8474 1.7097 0.0410 0 9
-8.1737 6.1826 0.4041 0.7225 0 9
-8.4591 6.1350 0.4120 0.7086 0 9
-8.7560 6.0856 0.4205 0.6945 0 9
-9.0655 6.0341 0.4294 0.6800 0 9
-9.3885 5.9803 0.4389 0.6652 0 9
-39.2366 23.8980 1.8115 0.2736 0 9
-38.6493 22.4877 1.7631 0.2058 0 9
-31.6829 17.5918 1.4290 0.2244 0 9
-32.1607 17.0204 1.4348 0.2235 0 9
-32.3967 16.3203 1.4304 0.1669 0 9
-32.2764 15.4541 1.4111 0.1692 0 9
-34.2503 15.5608 1.4833 0.5524 0 9
-30.1253 12.9626 1.2932 0.0353 0 9
-33.6237 13.6736 1.4312 0.1552 0 9
-29.4171 9.9425 1.2244 0.1055 0 9
-33.2704 10.5045 1.3757 0.1083 0 9
-30.3069 8.9029 1.2455 0.3673 0 9
-30.3709 8.2623 1.2411 0.3686 0 9
-29.7852 7.4633 1.2108 0.3532 0 9
-30.3045 6.9491 1.2260 0.4054 0 9
-30.2395 6.2972 1.2179 0.4080 0 9
-39.1025 6.5152 1.5631 0.2677 0 9
-38.6289 5.6407 1.5393 0.2718 0 9
-38.8017 4.8715 1.5420 0.4254 0 9
-38.9040 4.0919 1.5425 0.2984 0 9
-38.3834 3.2585 1.5189 0.2376 0 9
-39.2206 2.5367 1.5497 0.3124 0 9
-38.1871 1.6999 1.5073 0.0936 0 9
-34.2657 0.8355 1.3515 0.1510 0 9
-33.8837 0.1448 1.3361 0.0529 0 9
-35.2220 -0.5576 1.3890 0.4201 0 9
-35.1009 -1.2618 1.3850 0.5340 0 9
-34.2752 -1.9227 1.3536 0.1306 0 9
-34.6454 -2.6430 1.3701 0.2035 0 9
-34.1546 -3.2973 1.3530 0.1824 0 9
-34.5025 -4.0324 1.3697 0.2189 0 9
-34.7168 -4.7667 1.3818 0.2170 0 9
-34.9377 -5.5147 1.3947 0.2150 0 9
-35.7936 -6.3898 1.4337 0.3656 0 9
-35.5439 -7.0853 1.4291 0.2106 0 9
-36.6625 -8.0778 1.4803 0.2971 0 9
-27.5350 -18.4217 0.5596 0.2137 0 9
-26.9469 -18.8233 0.5552 0.1106 0 9
-26.3983 -19.2411 0.5518 0.1113 0 9
-25.7191 -19.5497 0.5457 0.1162 0 9
-31.5620 -25.0076 0.6802 0.4458 0 9
-30.2062 -24.9380 0.6617 0.1312 0 9
-32.5335 -27.9780 0.7248 0.4049 0 9
-32.6211 -29.2144 0.7397 0.3372 0 9
-33.4970 -31.2348 0.7737 0.0911 0 9
-28.9479 -29.2548 0.6952 0.0431 0 9
-28.3547 -29.8315 0.6952 0.1134 0 9
-32.4763 -35.5731 0.8136 0.4266 0 9
-31.1553 -35.5352 0.7983 0.1099 0 9
-31.2757 -37.1534 0.8203 0.2830 0 9
-30.9248 -38.2723 0.8311 0.1970 0 9
-8.1536 -10.5165 0.2248 0.9132 0 9
-7.9940 -10.7501 0.2263 0.9071 0 9
-7.8321 -10.9869 0.2279 0.9006 0 9
-7.6679 -11.2274 0.2297 0.8938 0 9
-7.5009 -11.4716 0.2315 0.8866 0 9
-7.3314 -11.7199 0.2335 0.8790 0 9
-7.0278 -12.3090 0.2394 0.6297 0 9
-6.6164 -12.1494 0.2337 0.6452 0 9
-6.2218 -11.9926 0.2282 0.5995 0 9
-5.8245 -11.8011 0.2223 0.6155 0 9
-4.9503 -14.0905 0.2523 0.4067 0 9
0.9332 -21.1402 0.3575 0.1099 0 1
1.2929 -20.1069 0.3404 0.1177 0 1
1.6579 -19.6147 0.3325 0.9979 0 1
2.0645 -19.6984 0.3346 0.9964 0 1
2.4648 -19.6902 0.3352 0.9945 0 1
2.8666 -19.6821 0.3360 0.9922 0 1
3.2199 -19.3690 0.3317 0.7151 0 1
3.5540 -19.0081 0.3267 0.8524 0 1
3.8851 -18.6911 0.3225 0.9629 0 1
4.2595 -18.6065 0.3224 0.9790 0 1
4.6540 -18.6027 0.3239 0.9697 0 1
5.0520 -18.5973 0.3255 0.9700 0 1
5.5280 -18.8435 0.3317 0.5656 0 1
6.1808 -19.6013 0.3472 0.9529 0 1
6.6762 -19.7770 0.3526 0.9434 0 1
7.2165 -20.0391 0.3598 0.9385 0 1
7.6762 -20.0420 0.3625 0.9314 0 1
8.1426 -20.0438 0.3655 0.9250 0 1
8.5105 -19.7986 0.3640 0.9138 0 1
8.8994 -19.6073 0.3637 0.9099 0 1
9.3826 -19.6141 0.3673 0.1059 0 1
9.8406 -19.5521 0.3697 0.9030 0 1
10.2142 -19.3173 0.3691 0.1195 0 0
10.1775 -18.3457 0.3544 0.1245 0 0
10.1386 -17.4397 0.3408 0.1261 0 0
10.1528 -16.6829 0.3299 0.1382 0 0
10.1687 -15.9768 0.3199 0.1425 0 0
10.1081 -15.1982 0.3083 0.1185 0 0
10.0701 -14.5003 0.2982 0.1225 0 0
10.0351 -13.8473 0.2889 0.1265 0 0
10.1216 -13.3916 0.2836 0.1873 0 0
10.2154 -12.9654 0.2788 0.1905 0 0
10.3066 -12.5535 0.2744 0.1936 0 0
10.3952 -12.1548 0.2702 0.1966 0 0
10.4792 -11.7657 0.2661 0.2188 0 0
10.4727 -11.2929 0.2602 0.1763 0 0
5.9160 -6.1275 0.1439 0.8871 0 5
10.4336 -10.3807 0.2486 0.1844 0 0
10.4158 -9.9544 0.2434 0.1858 0 0
10.3382 -9.4901 0.2371 0.1923 0 8
10.3227 -9.1003 0.2325 0.1961 0 8
10.3080 -8.7254 0.2281 0.1998 0 8
8.2400 -6.6953 0.1794 0.5936 0 9
8.2497 -6.4322 0.1767 0.8136 0 9
8.5318 -6.3806 0.1800 0.8122 0 9
8.9492 -6.4164 0.1860 0.5712 0 9
8.7466 -6.0086 0.1793 0.7061 0 9
10.2010 -6.7099 0.2063 0.2203 0 19
10.0347 -6.3153 0.2003 0.5497 0 19
10.2175 -6.1471 0.2014 0.2263 0 8
10.2089 -5.8657 0.1989 0.2292 0 8
10.4603 -5.7336 0.2015 0.4983 0 8
10.5825 -5.5269 0.2017 0.2347 0 7
10.5751 -5.2552 0.1995 0.2373 0 7
10.5681 -4.9894 0.1974 0.2397 0 7
10.5615 -4.7291 0.1955 0.2421 0 7
10.5554 -4.4738 0.1937 0.2444 0 7
10.5496 -4.2233 0.1920 0.2466 0 7
10.5442 -3.9771 0.1904 0.2486 0 7
10.5391 -3.7350 0.1889 0.2506 0 7
10.5345 -3.4966 0.1875 0.2524 0 7
10.5301 -3.2617 0.1862 0.2542 0 7
10.5262 -3.0299 0.1850 0.2558 0 7
10.5224 -2.8011 0.1839 0.2573 0 7
10.5190 -2.5749 0.1829 0.2587 0 7
10.5160 -2.3511 0.1820 0.2600 0 7
10.5131 -2.1296 0.1812 0.2612 0 7
10.5106 -1.9099 0.1805 0.2623 0 7
10.5084 -1.6920 0.1798 0.2632 0 7
10.5064 -1.4757 0.1792 0.2641 0 7
10.5048 -1.2607 0.1787 0.2648 0 7
10.5033 -1.0468 0.1783 0.2654 0 7
10.5022 -0.8339 0.1780 0.2659 0 7
10.5013 -0.6217 0.1777 0.2663 0 7
5.6269 -0.2197 0.0951 0.2953 184 4
5.5989 -0.1060 0.0946 0.6702 184 4
5.5382 0.0065 0.0936 0.6545 184 4
5.6092 0.1194 0.0948 0.2362 184 4
5.5747 0.2308 0.0943 0.6235 184 4
10.5014 0.6466 0.1777 0.2663 0 7
10.5023 0.8588 0.1780 0.2659 0 7
10.5035 1.0719 0.1783 0.2654 0 7
10.5050 1.2859 0.1788 0.2647 0 7
10.5067 1.5010 0.1793 0.2640 0 7
10.5086 1.7175 0.1799 0.2631 0 7
10.5109 1.9356 0.1805 0.2622 0 7
10.5134 2.1555 0.1813 0.2611 0 7
10.2397 2.3147 0.1773 0.2588 0 8
10.1839 2.5184 0.1772 0.2791 0 8
10.1351 2.7236 0.1773 0.2571 0 8
10.1306 2.9420 0.1782 0.2592 0 19
9.7986 3.0605 0.1734 0.2540 0 19
9.8028 3.2794 0.1746 0.2522 0 19
9.8071 3.5016 0.1759 0.2504 0 19
10.1563 3.8582 0.1835 0.2484 0 8
10.1615 4.0958 0.1851 0.2463 0 8
