ply
format ascii 1.0
element vertex 1336
property float32 x
property float32 y
property float32 z
property float32 CosAngle
property uint32 ObjIdx
property uint32 ObjTag
end_header
6.9417 12.2333 -0.7133 0.2179 0 0
6.8396 12.6386 -0.7288 0.2132 0 0
6.7323 13.0609 -0.7452 0.2086 0 0
6.6193 13.5011 -0.7626 0.2088 0 0
6.4975 13.9555 -0.7807 0.2039 0 0
6.3692 14.4309 -0.8000 0.1990 0 0
6.2598 14.9916 -0.8239 0.1624 0 0
6.1583 15.6245 -0.8517 0.1571 0 0
6.0490 16.2998 -0.8817 0.1518 0 0
5.9341 17.0321 -0.9147 0.1428 0 0
5.8126 17.8290 -0.9510 0.1373 0 0
5.6802 18.6893 -0.9906 0.1318 0 0
5.5354 19.6217 -1.0339 0.1263 0 0
5.3770 20.6389 -1.0816 0.1217 0 0
5.2068 21.7697 -1.1352 0.1177 0 0
5.0210 23.0294 -1.1954 0.1044 0 0
4.8212 24.4649 -1.2646 0.1029 0 0
4.6252 26.2403 -1.3513 0.0856 0 0
4.4106 28.3436 -1.4547 0.0845 0 0
3.8627 28.5934 -1.4632 0.9884 0 11
3.2746 28.5537 -1.4575 0.9911 0 11
2.6970 28.5815 -1.4559 0.9934 0 11
2.1156 28.5418 -1.4514 0.9953 0 11
1.5410 28.5696 -1.4510 0.9968 0 11
0.7400 21.8958 -1.1111 0.0581 0 11
0.3910 28.5578 -1.4484 0.9986 0 11
-0.2098 32.7346 -1.6601 0.6111 0 20
-0.8795 33.1725 -1.6829 0.8652 0 20
-1.5539 33.3189 -1.6916 0.9948 0 20
-1.9719 29.5182 -1.5003 0.9798 0 20
-2.8594 32.8586 -1.6727 0.8933 0 20
-3.4344 32.0056 -1.6325 0.4664 0 20
-5.7795 8.2807 -0.5121 0.4854 0 9
-5.8299 8.0052 -0.5022 0.2781 0 9
-7.8406 10.3236 -0.6574 0.9754 0 9
-32.4610 37.7787 -2.5260 0.1645 0 9
-14.3444 15.3967 -1.0672 0.9334 0 5
-32.6816 33.6950 -2.3806 0.3669 0 9
-33.6913 33.3675 -2.4048 0.3217 0 9
-34.7910 33.0986 -2.4353 0.3104 0 9
-34.1569 31.2116 -2.3465 0.1337 0 9
-36.2389 31.8018 -2.4452 0.3161 0 9
-36.5338 30.7831 -2.4228 0.2217 0 9
-36.8071 29.7694 -2.4008 0.2237 0 9
-36.9630 28.6862 -2.3728 0.2036 0 9
-30.2440 20.6771 -1.8580 0.0433 0 9
-30.8471 20.1920 -1.8698 0.1014 0 9
-30.9107 19.3575 -1.8496 0.1109 0 9
-37.2492 22.2974 -2.2017 0.2597 0 9
-37.5795 21.4814 -2.1953 0.2605 0 9
-39.3773 21.4707 -2.2746 0.2558 0 9
-31.4495 15.5425 -1.7791 0.2743 0 9
-32.4194 15.2190 -1.8163 0.2607 0 9
-33.2960 14.8215 -1.8483 0.2562 0 9
-45.1074 19.0024 -2.4823 0.2687 0 9
-45.8081 18.2225 -2.5002 0.4625 0 9
-46.0863 17.2688 -2.4960 0.4950 0 9
-45.0074 15.8405 -2.4198 0.1296 0 9
-28.3667 8.7195 -1.5050 0.2378 0 9
-36.9006 10.5359 -1.9462 0.4259 0 9
-32.3118 8.5273 -1.6948 0.9620 0 9
-37.0693 8.9900 -1.9345 0.1208 0 9
-47.3381 10.4779 -2.4588 0.1875 0 9
-32.0028 6.4117 -1.6553 0.0885 0 9
-37.4824 6.7290 -1.9313 0.2747 0 9
-37.2906 5.9236 -1.9149 0.2113 0 9
-36.8344 5.0946 -1.8858 0.1123 0 9
-38.6296 4.5538 -1.9726 0.4277 0 9
-38.7213 3.7773 -1.9730 0.4276 0 9
-38.8042 2.9995 -1.9738 0.4273 0 9
-37.7446 2.1556 -1.9173 0.2358 0 9
-38.8274 1.4352 -1.9704 0.2021 0 9
-39.3271 -9.4976 -2.9665 0.4845 0 9
-31.0671 -8.1668 -2.3553 0.7307 0 9
-39.9984 -11.3789 -3.0492 0.4170 0 9
-39.2743 -12.0311 -3.0118 0.2195 0 9
-39.2756 -12.9005 -3.0311 0.2902 0 9
-38.5622 -13.5306 -2.9965 0.3060 0 9
-37.2330 -13.9107 -2.9143 0.2176 0 9
-37.3712 -14.8248 -2.9479 0.7692 0 9
-37.4896 -15.7511 -2.9816 0.2426 0 9
-37.4324 -16.6198 -3.0030 0.3118 0 9
-37.3565 -17.4931 -3.0245 0.5461 0 9
-33.9458 -16.7357 -2.7751 0.0491 0 9
-38.0187 -20.6828 -3.1735 0.1478 0 9
-30.0439 -17.1358 -2.5360 0.2287 0 9
-42.3600 -25.3017 -3.6178 0.2610 0 9
-40.6130 -27.7090 -3.6049 0.1407 0 9
-33.0065 -24.5197 -3.0148 0.1082 0 9
-33.0898 -26.7103 -3.1180 0.7505 0 9
-35.5227 -29.8730 -3.4032 0.0895 0 9
-33.9911 -29.7714 -3.3131 0.3255 0 9
-33.1166 -30.2028 -3.2864 0.2339 0 9
-34.1481 -32.4245 -3.4527 0.4828 0 9
-34.5147 -35.5168 -3.6313 0.9658 0 9
-31.8324 -34.1020 -3.4205 0.1924 0 9
-13.6576 -24.4272 -2.0520 0.9894 0 5
-3.1798 -6.5907 -0.5366 0.4959 21 5
-5.4059 -13.9737 -1.0986 0.6606 0 9
-5.7814 -34.0571 -2.5329 0.5168 0 9
-5.0008 -33.5294 -2.4857 0.7710 0 9
-2.5368 -19.7175 -1.4576 0.9877 0 1
-2.1465 -19.8242 -1.4621 0.9903 0 1
-1.7439 -19.8204 -1.4589 0.9924 0 1
-1.3429 -19.8166 -1.4563 0.9941 0 1
-0.9431 -19.8128 -1.4544 0.9955 0 1
-0.5442 -19.8090 -1.4530 0.9964 0 1
-0.1262 -17.1243 -1.2556 0.0550 0 10
0.2129 -16.7220 -1.2262 0.3900 0 10
0.5438 -16.5607 -1.2149 0.4281 0 10
1.0486 -19.7939 -1.4534 0.9962 0 1
1.4477 -19.7901 -1.4549 0.9951 0 1
1.8479 -19.7863 -1.4571 0.9936 0 1
2.2494 -19.7825 -1.4599 0.9918 0 1
2.6378 -19.6684 -1.4550 0.9895 0 1
2.9669 -19.1873 -1.4236 0.6946 0 1
3.3008 -18.8321 -1.4019 0.8336 0 1
3.6269 -18.4986 -1.3822 0.9508 0 1
4.0046 -18.4525 -1.3845 0.9778 0 1
4.3456 -18.2464 -1.3753 0.1363 0 0
4.4929 -17.3135 -1.3115 0.1120 0 0
4.5999 -16.3658 -1.2465 0.1121 0 0
4.7137 -15.5628 -1.1923 0.1548 0 0
4.8489 -14.9214 -1.1504 0.1472 0 0
4.9443 -14.2352 -1.1049 0.1532 0 0
5.0727 -13.7095 -1.0718 0.2801 0 0
5.2526 -13.3641 -1.0529 0.2852 0 0
5.4415 -13.0672 -1.0379 0.3049 0 0
5.6260 -12.7801 -1.0239 0.3091 0 0
5.8064 -12.5024 -1.0108 0.2988 0 0
5.9901 -12.2473 -0.9997 0.3021 0 0
6.1476 -11.9547 -0.9857 0.2760 0 0
6.2486 -11.5729 -0.9644 0.2206 0 0
6.3238 -11.1693 -0.9411 0.2261 0 0
6.3946 -10.7832 -0.9192 0.2315 0 0
6.4656 -10.4196 -0.8991 0.2469 0 0
6.5536 -10.1024 -0.8830 0.2514 0 0
6.6088 -9.7525 -0.8638 0.2285 0 8
6.6673 -9.4253 -0.8465 0.2332 0 8
6.7228 -9.1097 -0.8301 0.2378 0 8
6.7753 -8.8050 -0.8146 0.2423 0 8
6.8253 -8.5103 -0.7999 0.2468 0 8
6.8726 -8.2251 -0.7859 0.2512 0 8
5.2987 -6.0885 -0.5918 0.6101 0 5
5.4803 -6.0473 -0.5984 0.7555 0 5
7.0011 -7.4201 -0.7480 0.2639 0 8
6.8696 -6.9937 -0.7188 0.7179 0 19
6.9384 -6.7854 -0.7116 0.6562 0 19
6.8700 -6.4535 -0.6911 0.2759 0 19
7.0979 -6.4040 -0.7010 0.6749 0 19
7.1765 -6.2179 -0.6962 0.2835 0 8
7.2066 -5.9948 -0.6873 0.2872 0 8
7.3076 -5.8343 -0.6856 0.6787 0 8
7.5400 -5.7757 -0.6964 0.2943 0 7
7.5670 -5.5586 -0.6884 0.2977 0 7
7.5927 -5.3460 -0.6809 0.3010 0 7
7.6171 -5.1373 -0.6737 0.3042 0 7
7.6403 -4.9325 -0.6668 0.3073 0 7
7.6624 -4.7314 -0.6603 0.3103 0 7
7.6833 -4.5336 -0.6541 0.3133 0 7
7.7032 -4.3390 -0.6483 0.3161 0 7
7.7220 -4.1474 -0.6427 0.3189 0 7
7.7398 -3.9587 -0.6374 0.3215 0 7
7.7567 -3.7726 -0.6325 0.3240 0 7
7.7727 -3.5891 -0.6277 0.3264 0 7
7.7878 -3.4079 -0.6233 0.3288 0 7
7.8019 -3.2288 -0.6191 0.3310 0 7
7.8152 -3.0519 -0.6152 0.3331 0 7
7.8278 -2.8768 -0.6115 0.3351 0 7
7.8395 -2.7036 -0.6080 0.3370 0 7
7.8504 -2.5320 -0.6048 0.3388 0 7
7.8606 -2.3619 -0.6018 0.3405 0 7
7.8699 -2.1933 -0.5990 0.3421 0 7
7.8786 -2.0261 -0.5965 0.3436 0 7
7.8866 -1.8600 -0.5941 0.3449 0 7
7.8938 -1.6950 -0.5920 0.3462 0 7
7.9004 -1.5310 -0.5901 0.3473 0 7
7.9063 -1.3679 -0.5883 0.3483 0 7
7.9115 -1.2055 -0.5868 0.3492 0 7
7.9160 -1.0439 -0.5854 0.3500 0 7
7.9198 -0.8829 -0.5843 0.3507 0 7
7.9231 -0.7224 -0.5833 0.3513 0 7
7.9257 -0.5623 -0.5826 0.3517 0 7
7.9276 -0.4025 -0.5820 0.3521 0 7
5.4296 -0.1663 -0.3983 0.6992 184 4
5.1835 -0.0546 -0.3801 0.2645 184 10
5.1901 0.0497 -0.3806 0.2692 184 10
5.3618 0.1591 -0.3933 0.3746 184 4
7.9277 0.3948 -0.5820 0.3521 0 7
7.9258 0.5546 -0.5826 0.3518 0 7
7.9232 0.7147 -0.5833 0.3513 0 7
7.9200 0.8752 -0.5843 0.3507 0 7
7.9162 1.0362 -0.5854 0.3501 0 7
7.9117 1.1978 -0.5867 0.3493 0 7
7.9065 1.3601 -0.5882 0.3484 0 7
7.9007 1.5232 -0.5900 0.3473 0 7
7.8942 1.6871 -0.5919 0.3462 0 7
7.8869 1.8521 -0.5940 0.3450 0 7
7.8790 2.0181 -0.5964 0.3436 0 7
7.8704 2.1853 -0.5989 0.3422 0 7
7.5714 2.2671 -0.5795 0.3406 0 8
7.5684 2.4330 -0.5829 0.3733 0 8
7.5512 2.5960 -0.5855 0.3371 0 8
7.5399 2.7628 -0.5888 0.3352 0 8
7.3250 2.8523 -0.5764 0.3533 0 19
7.4896 3.0912 -0.5941 0.3311 0 19
7.4760 3.2629 -0.5981 0.3289 0 19
7.4526 3.4326 -0.6016 0.5018 0 19
7.2183 3.5022 -0.5883 0.3241 0 19
7.4555 3.8042 -0.6137 0.3216 0 8
7.4384 3.9859 -0.6188 0.3190 0 8
7.4202 4.1703 -0.6241 0.3162 0 8
5.3561 3.1535 -0.4557 0.4980 0 9
5.1143 3.1512 -0.4405 0.5153 0 9
7.3599 4.7415 -0.6419 0.3075 0 8
7.3376 4.9385 -0.6485 0.3043 0 8
7.3141 5.1393 -0.6554 0.3011 0 8
7.2895 5.3440 -0.6627 0.2978 0 8
7.2635 5.5528 -0.6704 0.2944 0 8
7.2362 5.7660 -0.6784 0.2909 0 8
7.2076 5.9839 -0.6869 0.2874 0 8
7.1775 6.2068 -0.6958 0.2837 0 8
7.2091 6.4918 -0.7113 0.2825 0 0
7.1732 6.7254 -0.7210 0.2787 0 0
7.1356 6.9649 -0.7311 0.2748 0 0
7.0961 7.2104 -0.7418 0.2709 0 0
7.0547 7.4626 -0.7530 0.2668 0 0
7.0113 7.7218 -0.7648 0.2627 0 0
6.9657 7.9884 -0.7771 0.2585 0 0
6.9179 8.2631 -0.7902 0.2543 0 0
6.8675 8.5462 -0.8039 0.2499 0 0
6.8146 8.8384 -0.8183 0.2455 0 0
6.7590 9.1404 -0.8335 0.2411 0 0
6.7004 9.4528 -0.8496 0.2365 0 0
6.6387 9.7764 -0.8665 0.2319 0 0
6.5736 10.1121 -0.8843 0.2272 0 0
6.5050 10.4607 -0.9032 0.2225 0 0
6.4147 10.7933 -0.9206 0.2437 0 0
6.3144 11.1278 -0.9381 0.2392 0 0
6.2094 11.4740 -0.9566 0.2346 0 0
6.0993 11.8328 -0.9761 0.2299 0 0
5.9839 12.2051 -0.9967 0.2251 0 0
5.8627 12.5920 -1.0185 0.2203 0 0
5.7353 12.9947 -1.0415 0.2154 0 0
5.6012 13.4144 -1.0659 0.2105 0 0
5.4603 13.8536 -1.0918 0.2068 0 0
5.3121 14.3143 -1.1195 0.2017 0 0
5.1672 14.8311 -1.1516 0.1678 0 0
5.0307 15.4304 -1.1900 0.1624 0 0
4.8837 16.0686 -1.2314 0.1569 0 0
4.7261 16.7529 -1.2763 0.1477 0 0
4.5597 17.5016 -1.3261 0.1422 0 0
4.3787 18.3076 -1.3802 0.1366 0 0
4.1848 19.1940 -1.4404 0.1273 0 0
3.9744 20.1686 -1.5073 0.1216 0 0
3.7444 21.2433 -1.5816 0.1128 0 0
3.4955 22.4634 -1.6669 0.1070 0 0
3.2187 23.8267 -1.7629 0.1017 0 0
2.9188 25.4531 -1.8785 0.0889 0 0
2.5797 27.3398 -2.0135 0.0867 0 0
2.1179 28.5736 -2.1008 0.9940 0 11
0.8025 14.8800 -1.0926 0.0853 0 11
0.5392 15.9527 -1.1704 0.0797 0 11
0.4215 30.7902 -2.2578 0.9890 0 20
-0.2533 39.5171 -2.8976 0.0683 0 0
-0.7845 29.5900 -2.1704 0.6689 0 20
-1.4904 31.9551 -2.3456 0.0570 0 20
-2.2121 33.1145 -2.4334 0.8865 0 20
-2.8484 32.7335 -2.4092 0.8955 0 20
-3.2993 30.7458 -2.2673 0.9604 0 20
-3.3543 22.6387 -1.6780 0.1081 0 20
-3.6099 21.3902 -1.5905 0.1141 0 20
-5.7032 8.1714 -0.7306 0.4912 0 9
-5.9099 8.1149 -0.7361 0.2740 0 9
-32.8986 32.5824 -3.3950 0.3332 0 9
-33.9910 32.3372 -3.4400 0.3790 0 9
-37.4217 31.5315 -3.5880 0.5092 0 9
-34.8693 28.2019 -3.2883 0.7546 0 9
-35.4016 23.1730 -3.1024 0.0404 0 9
-36.8496 23.0766 -3.1880 0.3151 0 9
-37.6500 22.5374 -3.2174 0.3070 0 9
-38.6500 21.0742 -3.2278 0.0596 0 9
-33.6533 17.4818 -2.7806 0.8841 0 9
-45.1178 20.0837 -3.6211 0.1465 0 9
-45.9522 17.2185 -3.5981 0.2113 0 9
-37.4122 13.1674 -2.9081 0.1187 0 9
-36.4692 12.0175 -2.8154 0.3954 0 9
-36.3008 11.1584 -2.7846 0.5334 0 9
-36.6065 10.4520 -2.7913 0.4836 0 9
-32.1090 8.4738 -2.4349 0.9667 0 9
-47.4334 11.5036 -3.5787 0.5309 0 9
-38.5113 8.5242 -2.8921 0.1184 0 9
-48.6960 9.7562 -3.6414 0.3811 0 9
-48.0160 8.6201 -3.5769 0.1202 0 9
-31.6325 5.0248 -2.3484 0.0900 0 9
-38.8064 5.3673 -2.8725 0.2369 0 9
-37.8133 4.4575 -2.7918 0.5689 0 9
-37.4033 3.6487 -2.7555 0.1622 0 9
-37.9796 2.9358 -2.7931 0.5578 0 9
-38.7132 2.2108 -2.8432 0.2010 0 9
-38.9625 1.4402 -2.8588 0.2554 0 9
-38.7972 -9.3693 -3.8319 0.0008 0 9
-30.8792 -8.1174 -3.0653 0.9306 0 9
-39.7310 -11.3029 -3.9657 0.2182 0 9
-39.5367 -12.1115 -3.9698 0.2353 0 9
-38.3385 -12.5926 -3.8742 0.1092 0 9
-39.0435 -14.5872 -4.0015 0.4015 0 9
-38.9334 -15.4446 -4.0212 0.3262 0 9
-35.6031 -14.9585 -3.7075 0.1926 0 9
-35.3627 -15.7008 -3.7146 0.1922 0 9
-37.9578 -17.7746 -4.0239 0.2284 0 9
-42.8775 -21.1392 -4.5896 0.5473 0 9
-34.6679 -18.8600 -3.7890 0.1963 0 9
-33.8261 -19.2929 -3.7386 0.8052 0 9
-41.6704 -26.0400 -4.7175 0.3027 0 9
-29.0137 -18.9522 -3.3271 0.7998 0 9
-33.4097 -22.7945 -3.8829 0.0898 0 9
-33.0304 -26.6623 -4.0753 0.7504 0 9
-35.3900 -29.7613 -4.4393 0.1114 0 9
-34.8093 -30.4881 -4.4425 0.3448 0 9
-33.6097 -30.6528 -4.3671 0.3922 0 9
-34.3419 -35.3389 -4.7308 0.6717 0 9
-2.9788 -6.5050 -0.6869 0.9027 21 18
-2.8185 -6.4969 -0.6799 0.8623 21 18
-2.7265 -6.6476 -0.6898 0.3958 21 18
-5.4355 -14.0501 -1.4463 0.5506 0 9
-5.2407 -14.4002 -1.4712 0.4367 0 9
-7.8497 -33.7612 -3.3277 0.7990 0 9
-7.0974 -33.5708 -3.2942 0.9959 0 9
-6.3983 -33.5856 -3.2824 0.9990 0 9
-5.6957 -33.5526 -3.2673 0.8458 0 9
-4.9944 -33.4862 -3.2504 0.7962 0 9
-2.5370 -19.7187 -1.9087 0.9858 0 1
-2.1466 -19.8249 -1.9144 0.1401 0 1
-1.7440 -19.8216 -1.9103 0.9904 0 1
-1.3429 -19.8178 -1.9070 0.9922 0 1
-0.9432 -19.8140 -1.9044 0.9935 0 1
-0.4504 -16.3928 -1.5744 0.4964 0 10
-0.1194 -16.2045 -1.5558 0.5813 0 10
0.2031 -15.9583 -1.5322 0.3840 0 10
0.5155 -15.6997 -1.5081 0.2614 0 10
0.8214 -15.5063 -1.4908 0.3010 0 10
1.4478 -19.7914 -1.9052 0.9931 0 1
1.8480 -19.7876 -1.9080 0.9917 0 1
2.2495 -19.7838 -1.9116 0.9898 0 1
2.6379 -19.6697 -1.9053 0.9875 0 1
2.9638 -19.1674 -1.8620 0.6811 0 1
3.1958 -18.2331 -1.7772 0.1502 0 0
3.3970 -17.3260 -1.6951 0.1313 0 0
3.5368 -16.2969 -1.6010 0.1390 0 0
3.6821 -15.4607 -1.5258 0.1764 0 0
3.8304 -14.7605 -1.4640 0.1648 0 0
3.9887 -14.1913 -1.4152 0.1704 0 0
4.1528 -13.7108 -1.3754 0.2853 0 0
4.3470 -13.3767 -1.3504 0.2906 0 0
4.5337 -13.0529 -1.3266 0.2958 0 0
4.7138 -12.7396 -1.3041 0.3172 0 0
4.9015 -12.4710 -1.2865 0.3215 0 0
5.0838 -12.2081 -1.2696 0.3258 0 0
5.2607 -11.9505 -1.2536 0.3299 0 0
5.4026 -11.6329 -1.2314 0.2187 0 0
5.5046 -11.2547 -1.2028 0.2219 0 0
5.5994 -10.8886 -1.1755 0.2270 0 0
5.6891 -10.5368 -1.1496 0.2321 0 0
5.7742 -10.1985 -1.1252 0.2372 0 0
5.8224 -9.8182 -1.0959 0.2354 0 8
5.8972 -9.5037 -1.0738 0.2402 0 8
5.9683 -9.2002 -1.0528 0.2450 0 8
6.0357 -8.9068 -1.0329 0.2497 0 8
6.0997 -8.6229 -1.0140 0.2544 0 8
6.1606 -8.3480 -0.9961 0.2590 0 8
6.2185 -8.0813 -0.9790 0.2635 0 8
6.2737 -7.8225 -0.9627 0.2680 0 8
6.3261 -7.5711 -0.9472 0.2723 0 8
5.3467 -6.1436 -0.7819 0.6035 0 5
5.4741 -6.0404 -0.7826 0.7549 0 5
6.4468 -6.8327 -0.9019 0.2850 0 19
6.3037 -6.4175 -0.8636 0.6471 0 19
6.5537 -6.4092 -0.8801 0.2931 0 8
6.5930 -6.1934 -0.8684 0.2970 0 8
6.6305 -5.9823 -0.8574 0.3009 0 8
6.7398 -5.8395 -0.8561 0.7104 0 8
6.9563 -5.7866 -0.8687 0.3083 0 7
6.9900 -5.5808 -0.8587 0.3119 0 7
7.0223 -5.3791 -0.8492 0.3154 0 7
7.0529 -5.1810 -0.8402 0.3188 0 7
7.0822 -4.9865 -0.8316 0.3221 0 7
7.1100 -4.7953 -0.8233 0.3253 0 7
7.1365 -4.6073 -0.8155 0.3284 0 7
7.1617 -4.4222 -0.8081 0.3314 0 7
7.1857 -4.2399 -0.8010 0.3343 0 7
7.2085 -4.0603 -0.7943 0.3372 0 7
7.2301 -3.8832 -0.7879 0.3399 0 7
7.2506 -3.7084 -0.7818 0.3425 0 7
7.2699 -3.5359 -0.7761 0.3451 0 7
7.2883 -3.3654 -0.7707 0.3475 0 7
7.3056 -3.1969 -0.7656 0.3498 0 7
7.3220 -3.0302 -0.7608 0.3520 0 7
7.3374 -2.8653 -0.7562 0.3541 0 7
7.3518 -2.7019 -0.7520 0.3561 0 7
7.3653 -2.5401 -0.7480 0.3580 0 7
7.3780 -2.3796 -0.7442 0.3598 0 7
7.3897 -2.2205 -0.7408 0.3615 0 7
7.4006 -2.0625 -0.7376 0.3631 0 7
7.4106 -1.9057 -0.7346 0.3646 0 7
7.4198 -1.7499 -0.7319 0.3659 0 7
7.4283 -1.5950 -0.7294 0.3672 0 7
7.4358 -1.4409 -0.7272 0.3683 0 7
7.4426 -1.2876 -0.7252 0.3693 0 7
7.4487 -1.1350 -0.7234 0.3702 0 7
7.4540 -0.9830 -0.7218 0.3710 0 7
7.4585 -0.8314 -0.7205 0.3717 0 7
7.4622 -0.6804 -0.7194 0.3723 0 7
7.4652 -0.5296 -0.7185 0.3727 0 7
7.4674 -0.3791 -0.7178 0.3731 0 7
4.9757 -0.1524 -0.4779 0.4453 184 10
4.8879 -0.0515 -0.4693 0.5702 184 10
4.8907 0.0468 -0.4696 0.5719 184 10
5.0177 0.1489 -0.4819 0.1614 184 10
7.4675 0.3719 -0.7178 0.3731 0 7
7.4654 0.5224 -0.7185 0.3728 0 7
7.4623 0.6731 -0.7193 0.3723 0 7
7.4587 0.8242 -0.7204 0.3717 0 7
7.4542 0.9757 -0.7218 0.3711 0 7
7.4490 1.1278 -0.7233 0.3703 0 7
7.4430 1.2803 -0.7251 0.3694 0 7
7.4362 1.4336 -0.7271 0.3683 0 7
7.4286 1.5876 -0.7293 0.3672 0 7
7.4203 1.7425 -0.7318 0.3660 0 7
7.4111 1.8982 -0.7345 0.3646 0 7
7.4011 2.0550 -0.7374 0.3632 0 7
7.3902 2.2129 -0.7406 0.3616 0 7
7.1067 2.2846 -0.7167 0.3599 0 8
7.0946 2.4391 -0.7202 0.3581 0 8
7.0816 2.5949 -0.7241 0.3562 0 8
7.0677 2.7521 -0.7282 0.3542 0 8
6.9003 2.8479 -0.7167 0.3713 0 19
6.7986 2.9672 -0.7122 0.3499 0 19
6.9968 3.2226 -0.7396 0.3476 0 19
6.9792 3.3862 -0.7447 0.3452 0 19
6.7510 3.4448 -0.7276 0.5345 0 19
6.9646 3.7320 -0.7586 0.3400 0 8
6.9438 3.9025 -0.7647 0.3373 0 8
5.3554 3.1530 -0.5966 0.4971 0 9
5.1137 3.1508 -0.5767 0.5144 0 9
4.8876 3.1487 -0.5582 0.5314 0 9
6.8493 4.6099 -0.7926 0.3254 0 8
6.8225 4.7939 -0.8005 0.3222 0 8
6.7945 4.9811 -0.8088 0.3189 0 8
6.7650 5.1717 -0.8175 0.3155 0 8
6.7341 5.3658 -0.8266 0.3120 0 8
6.7016 5.5638 -0.8362 0.3085 0 8
6.6675 5.7658 -0.8463 0.3048 0 8
6.6319 5.9720 -0.8568 0.3011 0 8
6.5944 6.1828 -0.8679 0.2972 0 8
6.6164 6.4581 -0.8876 0.3273 0 0
6.5698 6.6757 -0.8992 0.2920 0 0
6.5243 6.9015 -0.9118 0.2880 0 0
6.4765 7.1328 -0.9250 0.2839 0 0
6.4264 7.3700 -0.9388 0.2797 0 0
6.3739 7.6134 -0.9533 0.2755 0 0
6.3190 7.8636 -0.9685 0.2711 0 0
6.2613 8.1208 -0.9845 0.2667 0 0
6.2008 8.3856 -1.0013 0.2622 0 0
6.1374 8.6585 -1.0189 0.2577 0 0
6.0707 8.9400 -1.0375 0.2531 0 0
6.0006 9.2306 -1.0570 0.2484 0 0
5.9269 9.5311 -1.0775 0.2437 0 0
5.8493 9.8420 -1.0992 0.2389 0 0
5.7676 10.1643 -1.1220 0.2340 0 0
5.6815 10.4987 -1.1461 0.2291 0 0
5.5736 10.8129 -1.1679 0.2527 0 0
5.4590 11.1345 -1.1905 0.2479 0 0
5.3389 11.4671 -1.2144 0.2430 0 0
5.2132 11.8117 -1.2395 0.2381 0 0
5.0812 12.1691 -1.2661 0.2331 0 0
4.9427 12.5402 -1.2941 0.2281 0 0
4.7970 12.9262 -1.3237 0.2230 0 0
4.6436 13.3281 -1.3550 0.2178 0 0
4.4819 13.7473 -1.3882 0.2126 0 0
4.3113 14.1852 -1.4234 0.2073 0 0
4.1336 14.6527 -1.4617 0.1728 0 0
3.9649 15.2187 -1.5099 0.1672 0 0
3.7837 15.8199 -1.5617 0.1617 0 0
3.5887 16.4602 -1.6174 0.1561 0 0
3.3819 17.1617 -1.6793 0.1474 0 0
3.1588 17.9205 -1.7470 0.1417 0 0
2.9159 18.7383 -1.8206 0.1360 0 0
2.6512 19.6254 -1.9013 0.1260 0 0
2.3632 20.6073 -1.9914 0.1203 0 0
2.0490 21.7153 -2.0940 0.1108 0 0
0.8340 11.2532 -1.0833 0.1125 0 11
0.6399 11.8638 -1.1406 0.1068 0 11
0.6842 20.2436 -1.9446 0.9947 0 11
0.3838 28.0430 -2.6925 0.0840 0 0
-0.1917 29.9064 -2.8712 0.0899 0 0
-0.8460 31.9073 -3.0644 0.0842 0 0
-1.5943 34.1816 -3.2852 0.0785 0 0
-2.4578 36.7916 -3.5401 0.0729 0 0
-3.4700 39.8755 -3.8427 0.0634 0 0
-4.6819 43.6306 -4.2128 0.0616 0 0
-2.9160 22.8373 -2.2103 0.9888 0 20
-3.0954 20.8916 -2.0276 0.9851 0 20
-2.7546 16.3222 -1.5892 0.8199 0 19
-9.6976 46.0880 -4.5216 0.5348 0 2
-5.6564 8.4617 -0.9772 0.4800 0 9
-5.6286 8.0645 -0.9442 0.4968 0 9
-5.9922 8.2281 -0.9772 0.2697 0 9
-34.7368 28.0947 -4.2891 0.9300 0 9
-34.4979 24.6172 -4.0687 0.0638 0 9
-37.7307 21.5677 -4.1724 0.2593 0 9
-33.4034 17.3519 -3.6138 0.8890 0 9
-37.2195 12.2647 -3.7623 0.2963 0 9
-36.7349 11.2918 -3.6896 0.1368 0 9
-36.4753 10.4145 -3.6418 0.3374 0 9
-31.9079 8.4207 -3.1682 0.9710 0 9
-46.5362 11.2860 -4.5972 0.3191 0 9
-38.0481 8.4216 -3.7412 0.0632 0 9
-34.6703 6.9462 -3.3947 0.2868 0 9
-35.3588 6.3479 -3.4489 0.2665 0 9
-36.0637 5.7288 -3.5057 0.2621 0 9
-36.6158 5.0644 -3.5488 0.4623 0 9
-36.5681 4.3107 -3.5351 0.4515 0 9
-38.9505 3.7996 -3.7572 0.5150 0 9
-36.7461 2.8404 -3.5383 0.4592 0 9
-34.9210 1.9942 -3.3581 0.1246 0 9
-36.6659 1.3554 -3.5225 0.2476 0 9
-36.5355 -8.8235 -4.4647 0.2034 0 9
-30.6953 -8.0691 -3.7701 0.9339 0 9
-40.0342 -11.3891 -4.9442 0.2420 0 9
-37.8695 -13.2876 -4.7673 0.1357 0 9
-42.9358 -16.0414 -5.4445 0.1911 0 9
-37.5645 -14.9016 -4.8004 0.1893 0 9
-36.8979 -15.5024 -4.7541 0.3534 0 9
-36.5949 -16.2478 -4.7562 0.3326 0 9
-35.5826 -16.6624 -4.6672 0.0541 0 9
-38.0410 -18.7548 -5.0381 0.0286 0 9
-33.5621 -19.1423 -4.5896 0.8978 0 9
-42.4602 -25.3615 -5.8749 0.3473 0 9
-41.4358 -25.8935 -5.8040 0.3230 0 9
-28.8143 -18.8219 -4.0883 0.9035 0 9
-40.4118 -27.5718 -5.8112 0.1168 0 9
-39.1554 -27.8840 -5.7100 0.0813 0 9
-39.0189 -28.9861 -5.7739 0.4190 0 9
-33.1356 -36.9597 -5.8964 0.9936 0 9
-3.0195 -6.5938 -0.8615 0.9909 21 5
-2.8215 -6.5037 -0.8421 0.7890 21 18
-2.7173 -6.6251 -0.8506 0.4039 21 18
-2.5808 -6.6712 -0.8497 0.1829 21 18
-5.1636 -14.1883 -1.7935 0.4422 0 9
-8.8588 -27.7665 -3.4621 0.6980 0 9
-8.1616 -27.4765 -3.4048 0.3049 0 9
-8.0634 -29.2898 -3.6087 0.5738 0 9
-7.9392 -31.2821 -3.8337 0.7041 0 9
-7.7556 -33.3568 -4.0680 0.9083 0 2
-7.0816 -33.4958 -4.0668 0.9680 0 2
-6.3792 -33.4858 -4.0492 0.9723 0 2
-5.6827 -33.4759 -4.0333 0.9761 0 2
-4.9920 -33.4702 -4.0198 0.1883 0 2
-4.2313 -32.8876 -3.9388 0.0495 0 0
-2.1349 -19.7162 -2.3557 0.9859 0 1
-1.7441 -19.8229 -2.3638 0.9880 0 1
-1.3431 -19.8191 -2.3596 0.9897 0 1
-0.9432 -19.8153 -2.3565 0.9911 0 1
-0.4247 -15.4581 -1.8369 0.2953 0 10
-0.1117 -15.1493 -1.7996 0.3727 0 10
0.1910 -14.9977 -1.7817 0.5930 0 10
0.4917 -14.9739 -1.7797 0.9966 0 10
0.7924 -14.9587 -1.7794 0.9580 0 10
1.1169 -15.2672 -1.8184 0.3826 0 10
1.6680 -17.8609 -2.1309 0.1277 0 8
2.0939 -18.4154 -2.2016 0.1496 0 0
2.3517 -17.5352 -2.1016 0.1567 0 0
2.5864 -16.7267 -2.0105 0.1638 0 0
2.7735 -15.8238 -1.9083 0.1741 0 0
2.9615 -15.1047 -1.8284 0.1817 0 0
3.1337 -14.4398 -1.7552 0.1893 0 0
3.2921 -13.8229 -1.6879 0.1969 0 0
3.4598 -13.3324 -1.6362 0.2893 0 0
3.6655 -13.0410 -1.6091 0.2942 0 0
3.8630 -12.7540 -1.5830 0.3060 0 0
4.0488 -12.4591 -1.5562 0.3112 0 0
4.2293 -12.1767 -1.5312 0.3334 0 0
4.4144 -11.9304 -1.5111 0.3379 0 0
4.5649 -11.6143 -1.4824 0.2243 0 0
4.6876 -11.2567 -1.4485 0.2295 0 0
4.8040 -10.9129 -1.4164 0.2347 0 0
4.9122 -10.5771 -1.3853 0.2378 0 0
5.0141 -10.2520 -1.3557 0.2430 0 0
5.0719 -9.8628 -1.3174 0.2417 0 8
5.1623 -9.5611 -1.2907 0.2467 0 8
5.2482 -9.2697 -1.2654 0.2516 0 8
5.3299 -8.9877 -1.2412 0.2565 0 8
5.4076 -8.7147 -1.2183 0.2613 0 8
5.4816 -8.4501 -1.1965 0.2661 0 8
5.5521 -8.1932 -1.1757 0.2708 0 8
5.6193 -7.9437 -1.1558 0.2755 0 8
5.6833 -7.7012 -1.1369 0.2800 0 8
5.7444 -7.4652 -1.1189 0.2846 0 8
5.6211 -7.0088 -1.0672 0.6815 0 19
5.8381 -6.9869 -1.0815 0.2934 0 19
5.3958 -6.2001 -0.9763 0.5965 0 5
5.4678 -6.0335 -0.9672 0.7539 0 5
5.6878 -6.0281 -0.9845 0.7407 0 5
6.0568 -6.1662 -1.0267 0.3101 0 8
6.1010 -5.9664 -1.0137 0.3141 0 8
6.2210 -5.8439 -1.0139 0.7404 0 8
6.4197 -5.7921 -1.0271 0.3218 0 7
6.4597 -5.5969 -1.0153 0.3256 0 7
6.4979 -5.4052 -1.0040 0.3292 0 7
6.5344 -5.2170 -0.9932 0.3328 0 7
6.5692 -5.0320 -0.9830 0.3363 0 7
6.6024 -4.8501 -0.9731 0.3397 0 7
6.6342 -4.6710 -0.9638 0.3430 0 7
6.6644 -4.4948 -0.9549 0.3462 0 7
6.6932 -4.3211 -0.9464 0.3493 0 7
6.7206 -4.1499 -0.9383 0.3523 0 7
6.7468 -3.9810 -0.9305 0.3552 0 7
6.7716 -3.8143 -0.9232 0.3581 0 7
6.7952 -3.6497 -0.9162 0.3608 0 7
6.8176 -3.4870 -0.9096 0.3634 0 7
6.8389 -3.3262 -0.9034 0.3659 0 7
6.8590 -3.1672 -0.8974 0.3683 0 7
6.8780 -3.0097 -0.8918 0.3707 0 7
6.8959 -2.8539 -0.8865 0.3729 0 7
6.9128 -2.6995 -0.8815 0.3750 0 7
6.9287 -2.5464 -0.8769 0.3770 0 7
6.9435 -2.3946 -0.8725 0.3789 0 7
6.9574 -2.2440 -0.8684 0.3807 0 7
6.9704 -2.0945 -0.8646 0.3823 0 7
6.9824 -1.9460 -0.8610 0.3839 0 7
6.9934 -1.7984 -0.8577 0.3854 0 7
7.0036 -1.6517 -0.8547 0.3867 0 7
7.0129 -1.5058 -0.8520 0.3880 0 7
7.0212 -1.3606 -0.8496 0.3891 0 7
7.0287 -1.2160 -0.8473 0.3901 0 7
7.0354 -1.0720 -0.8454 0.3910 0 7
7.0412 -0.9285 -0.8436 0.3918 0 7
7.0462 -0.7855 -0.8422 0.3925 0 7
7.0504 -0.6428 -0.8409 0.3931 0 7
7.0536 -0.5004 -0.8400 0.3935 0 7
7.0561 -0.3582 -0.8392 0.3939 0 7
4.9462 -0.1516 -0.5878 0.9987 184 10
4.9445 -0.0521 -0.5874 0.9995 184 10
4.9427 0.0473 -0.5872 0.9999 184 10
5.3054 0.1575 -0.6305 0.6571 184 10
5.6939 0.2836 -0.6772 0.2640 184 4
7.0537 0.4936 -0.8399 0.3935 0 7
7.0505 0.6360 -0.8409 0.3931 0 7
7.0464 0.7787 -0.8421 0.3925 0 7
7.0415 0.9217 -0.8436 0.3919 0 7
7.0357 1.0652 -0.8453 0.3911 0 7
7.0291 1.2091 -0.8472 0.3902 0 7
7.0216 1.3537 -0.8494 0.3891 0 7
7.0133 1.4988 -0.8519 0.3880 0 7
7.0040 1.6447 -0.8546 0.3868 0 7
6.9939 1.7914 -0.8576 0.3854 0 7
6.9829 1.9389 -0.8608 0.3840 0 7
6.9710 2.0874 -0.8644 0.3824 0 7
6.8834 2.2128 -0.8589 0.2953 0 8
6.6883 2.2994 -0.8401 0.3790 0 8
6.6741 2.4456 -0.8443 0.3771 0 8
6.6589 2.5929 -0.8488 0.3751 0 8
6.6427 2.7416 -0.8536 0.3730 0 8
6.5161 2.8439 -0.8445 0.3889 0 19
6.3831 2.9400 -0.8348 0.3685 0 19
6.5655 3.1855 -0.8668 0.3660 0 19
6.5452 3.3397 -0.8728 0.3635 0 19
6.4015 3.4303 -0.8627 0.4610 0 19
5.6138 3.1550 -0.7649 0.4786 0 9
5.3547 3.1526 -0.7381 0.4960 0 9
5.1130 3.1504 -0.7134 0.5132 0 9
6.4479 4.1540 -0.9111 0.3494 0 8
6.4202 4.3211 -0.9193 0.3463 0 8
6.3911 4.4908 -0.9279 0.3431 0 8
6.3606 4.6631 -0.9368 0.3398 0 8
6.3287 4.8382 -0.9463 0.3365 0 8
6.2953 5.0162 -0.9562 0.3330 0 8
6.2602 5.1973 -0.9665 0.3294 0 8
6.2235 5.3818 -0.9773 0.3258 0 8
6.1851 5.5697 -0.9887 0.3220 0 8
6.1448 5.7612 -1.0006 0.3182 0 8
6.1027 5.9567 -1.0130 0.3143 0 8
6.0586 6.1562 -1.0260 0.3103 0 8
6.0718 6.4229 -1.0499 0.3416 0 0
6.0156 6.6252 -1.0630 0.3049 0 0
5.9628 6.8383 -1.0777 0.3007 0 0
5.9075 7.0563 -1.0932 0.2965 0 0
5.8497 7.2796 -1.1093 0.2922 0 0
5.7893 7.5086 -1.1263 0.2878 0 0
5.7260 7.7434 -1.1440 0.2833 0 0
5.6597 7.9846 -1.1626 0.2788 0 0
5.5903 8.2325 -1.1821 0.2742 0 0
5.5175 8.4875 -1.2025 0.2695 0 0
5.4426 8.7522 -1.2243 0.2666 0 0
5.3631 9.0240 -1.2470 0.2618 0 0
5.2797 9.3044 -1.2708 0.2569 0 0
5.1920 9.5942 -1.2958 0.2519 0 0
5.0999 9.8939 -1.3222 0.2469 0 0
5.0029 10.2042 -1.3500 0.2418 0 0
4.9008 10.5260 -1.3792 0.2367 0 0
4.7775 10.8245 -1.4055 0.2592 0 0
4.6482 11.1321 -1.4330 0.2542 0 0
4.5129 11.4500 -1.4620 0.2492 0 0
4.3712 11.7790 -1.4924 0.2441 0 0
4.2226 12.1198 -1.5246 0.2389 0 0
4.0666 12.4733 -1.5584 0.2337 0 0
3.9026 12.8405 -1.5942 0.2285 0 0
3.7301 13.2223 -1.6319 0.2232 0 0
3.5510 13.6298 -1.6731 0.2314 0 0
3.3720 14.0986 -1.7220 0.2249 0 0
3.1818 14.5938 -1.7743 0.2035 0 0
2.9866 15.1558 -1.8349 0.1968 0 0
2.7824 15.7854 -1.9040 0.1731 0 0
2.5617 16.4626 -1.9791 0.1665 0 0
2.3059 17.0695 -2.0461 0.2012 0 0
2.0277 17.6826 -2.1142 0.1947 0 0
0.8525 9.0342 -1.0779 0.1395 0 11
0.6989 9.4299 -1.1232 0.1339 0 11
0.6298 11.6782 -1.3892 0.0315 0 11
0.7129 21.0922 -2.5069 0.1152 0 0
0.3050 22.2810 -2.6469 0.1091 0 0
-0.1515 23.6363 -2.8077 0.0992 0 0
-0.6661 25.1182 -2.9847 0.0940 0 0
-1.2464 26.7231 -3.1778 0.0883 0 0
-1.8917 28.3176 -3.3712 0.0906 0 0
-3.4402 32.0588 -3.8300 0.0831 0 0
-2.6462 20.7249 -2.4818 0.9865 0 20
-2.4498 16.5345 -1.9855 0.5027 0 19
-2.8508 16.8918 -2.0349 0.4880 0 19
-3.0246 15.9599 -1.9296 0.8335 0 19
-3.4594 16.4406 -1.9957 0.3924 0 19
-9.6853 41.8383 -5.1012 0.9698 0 2
-9.7501 38.5728 -4.7260 0.2573 0 2
-5.5806 8.3483 -1.1928 0.4854 0 9
-5.5630 7.9705 -1.1546 0.6252 0 9
-33.1560 17.2235 -4.4382 0.8934 0 9
-39.6605 13.0691 -4.9603 0.1007 0 9
-31.7084 8.3681 -3.8955 0.9747 0 9
-47.0116 11.4013 -5.7462 0.3030 0 9
-46.1384 10.2123 -5.6132 0.3017 0 9
-48.4201 9.7010 -5.8659 0.4477 0 9
-45.8145 8.2249 -5.5291 0.3822 0 9
-45.7477 7.2671 -5.5023 0.3605 0 9
-39.8064 5.5055 -4.7735 0.9844 0 9
-38.7220 3.7773 -4.6215 0.5167 0 9
-39.4350 3.0482 -4.6983 0.3093 0 9
-38.2730 2.1856 -4.5537 0.2391 0 9
-38.0810 -9.1967 -5.5508 0.3396 0 9
-30.5127 -8.0211 -4.4702 0.9367 0 9
-41.2458 -11.7338 -6.0760 0.9746 0 9
-39.4470 -12.0840 -5.8456 0.1211 0 9
-38.5803 -12.6721 -5.7538 0.0909 0 9
-39.4752 -13.8509 -5.9275 0.1956 0 9
-36.3077 -15.2544 -5.5800 0.9153 0 9
-38.5734 -17.1264 -5.9800 0.0364 0 9
-41.9360 -21.7333 -6.6924 0.4249 0 9
-33.4154 -19.0587 -5.4506 0.8991 0 9
-28.6972 -18.7455 -4.8567 0.9045 0 9
-38.7830 -28.8109 -6.8455 0.9915 0 9
-32.1036 -26.9976 -5.9434 0.9362 0 9
-32.8040 -31.1483 -6.4095 0.0554 0 0
-32.3712 -31.9986 -6.4493 0.3529 0 0
-32.0007 -32.9298 -6.5060 0.3608 0 0
-31.5958 -33.8485 -6.5607 0.3694 0 0
-31.2151 -34.8178 -6.6256 0.3101 0 0
-30.9370 -35.9352 -6.7186 0.3058 0 0
-30.6744 -37.1131 -6.8222 0.2723 0 0
-30.3272 -38.2326 -6.9145 0.4377 0 0
-29.9612 -39.3711 -7.0101 0.5765 0 0
-3.0148 -6.5837 -1.0260 0.7920 21 5
-2.8219 -6.5047 -1.0046 0.9061 21 18
-2.6721 -6.5150 -0.9977 0.8389 21 18
-8.8844 -22.9652 -3.4889 0.7150 0 9
-5.0883 -13.9815 -2.1082 0.4474 0 9
-8.1657 -23.9227 -3.5816 0.5631 0 9
-8.0067 -25.0957 -3.7324 0.3035 0 9
-7.8961 -26.5825 -3.9291 0.9359 0 9
-7.7679 -28.2167 -4.1467 0.3077 0 2
-7.6821 -30.2696 -4.4249 0.2894 0 2
-7.5606 -32.5178 -4.7303 0.9600 0 2
-7.0872 -33.5227 -4.8548 0.9651 0 2
-5.9579 -31.2741 -4.5109 0.1443 0 0
-4.8387 -28.5039 -4.0965 0.0860 0 0
-3.9986 -26.8100 -3.8407 0.0925 0 0
-3.2689 -25.4073 -3.6296 0.1001 0 0
-2.1350 -19.7174 -2.8101 0.9829 0 1
-1.7442 -19.8242 -2.8197 0.9850 0 1
-1.3432 -19.8204 -2.8148 0.9868 0 1
-0.7308 -15.3518 -2.1777 0.6984 0 10
-0.4110 -14.9596 -2.1204 0.9826 0 10
-0.1102 -14.9557 -2.1191 0.9959 0 10
0.1901 -14.9314 -2.1158 0.9969 0 10
0.4896 -14.9087 -2.1135 0.9981 0 10
0.7904 -14.9207 -2.1171 0.9612 0 10
1.1271 -15.4071 -2.1888 0.7060 0 10
1.4277 -15.2871 -2.1754 0.1577 0 8
1.8272 -16.0701 -2.2916 0.1662 0 0
2.0680 -15.4202 -2.2045 0.1793 0 0
2.2804 -14.7473 -2.1144 0.1869 0 0
2.4754 -14.1232 -2.0316 0.1945 0 0
2.6552 -13.5424 -1.9554 0.2021 0 0
2.8213 -13.0001 -1.8849 0.2097 0 0
3.0167 -12.6665 -1.8449 0.3052 0 0
3.2187 -12.4033 -1.8156 0.3101 0 0
3.4139 -12.1462 -1.7877 0.3149 0 0
3.6027 -11.8947 -1.7610 0.3197 0 0
3.7588 -11.5670 -1.7233 0.2275 0 0
3.9004 -11.2297 -1.6844 0.2347 0 0
4.0339 -10.9019 -1.6470 0.2400 0 0
4.1607 -10.5858 -1.6116 0.2453 0 0
4.2812 -10.2808 -1.5779 0.2506 0 0
4.3936 -9.9806 -1.5451 0.2535 0 0
4.4564 -9.5955 -1.4991 0.2526 0 8
4.5566 -9.3165 -1.4695 0.2577 0 8
4.6520 -9.0463 -1.4413 0.2627 0 8
4.7429 -8.7844 -1.4145 0.2677 0 8
4.8296 -8.5302 -1.3889 0.2726 0 8
4.9122 -8.2833 -1.3645 0.2775 0 8
4.9911 -8.0434 -1.3413 0.2823 0 8
5.0664 -7.8099 -1.3190 0.2871 0 8
5.1383 -7.5825 -1.2978 0.2918 0 8
5.0301 -7.1108 -1.2341 0.2964 0 19
5.1742 -7.0112 -1.2346 0.8018 0 19
5.3170 -6.9097 -1.2353 0.3055 0 19
5.2121 -6.4990 -1.1804 0.3099 0 19
5.3659 -6.4218 -1.1857 0.7654 0 19
5.4461 -6.2578 -1.1754 0.5893 0 5
5.4616 -6.0267 -1.1524 0.7526 0 5
5.6106 -5.9464 -1.1584 0.3269 0 8
5.7436 -5.8473 -1.1613 0.7688 0 8
5.9227 -5.7921 -1.1738 0.3349 0 7
5.9685 -5.6066 -1.1603 0.3388 0 7
6.0122 -5.4245 -1.1473 0.3426 0 7
6.0541 -5.2454 -1.1350 0.3464 0 7
6.0942 -5.0694 -1.1232 0.3500 0 7
6.1325 -4.8961 -1.1119 0.3536 0 7
6.1691 -4.7255 -1.1011 0.3571 0 7
6.2040 -4.5574 -1.0907 0.3604 0 7
6.2374 -4.3917 -1.0809 0.3637 0 7
6.2693 -4.2283 -1.0715 0.3669 0 7
6.2998 -4.0671 -1.0625 0.3700 0 7
6.3288 -3.9079 -1.0539 0.3730 0 7
6.3565 -3.7507 -1.0458 0.3759 0 7
6.3828 -3.5953 -1.0380 0.3788 0 7
6.4078 -3.4416 -1.0306 0.3815 0 7
6.4316 -3.2896 -1.0236 0.3841 0 7
6.4542 -3.1391 -1.0169 0.3866 0 7
6.4755 -2.9901 -1.0106 0.3890 0 7
6.4957 -2.8425 -1.0046 0.3913 0 7
6.5148 -2.6962 -0.9990 0.3935 0 7
6.5328 -2.5511 -0.9937 0.3956 0 7
6.5497 -2.4071 -0.9887 0.3976 0 7
6.5655 -2.2642 -0.9840 0.3995 0 7
6.5804 -2.1224 -0.9797 0.4013 0 7
6.5942 -1.9814 -0.9756 0.4030 0 7
6.6069 -1.8413 -0.9718 0.4045 0 7
6.6187 -1.7021 -0.9683 0.4060 0 7
6.6296 -1.5635 -0.9651 0.4073 0 7
6.6395 -1.4256 -0.9622 0.4086 0 7
6.6485 -1.2884 -0.9596 0.4097 0 7
6.6566 -1.1516 -0.9572 0.4107 0 7
6.6637 -1.0154 -0.9551 0.4116 0 7
6.6699 -0.8796 -0.9532 0.4124 0 7
6.6752 -0.7441 -0.9517 0.4131 0 7
6.6796 -0.6090 -0.9504 0.4137 0 7
6.6831 -0.4741 -0.9493 0.4141 0 7
5.7599 -0.2924 -0.8172 0.3460 184 4
4.9317 -0.1511 -0.6991 0.9988 184 10
4.9300 -0.0519 -0.6986 0.9995 184 10
4.9282 0.0472 -0.6983 0.9999 184 10
5.3583 0.1590 -0.7596 0.3563 184 10
5.7539 0.2866 -0.8163 0.3173 184 4
6.6833 0.4677 -0.9493 0.4141 0 7
6.6798 0.6025 -0.9503 0.4137 0 7
6.6754 0.7377 -0.9516 0.4131 0 7
6.6702 0.8731 -0.9532 0.4125 0 7
6.6639 1.0089 -0.9550 0.4117 0 7
6.6569 1.1451 -0.9571 0.4108 0 7
6.6489 1.2818 -0.9594 0.4098 0 7
6.6399 1.4191 -0.9621 0.4086 0 7
6.6301 1.5569 -0.9650 0.4074 0 7
6.6193 1.6954 -0.9682 0.4061 0 7
6.6075 1.8347 -0.9717 0.4046 0 7
6.5947 1.9747 -0.9754 0.4030 0 7
6.5811 2.1156 -0.9795 0.4014 0 7
6.4275 2.2097 -0.9630 0.4027 0 8
6.3091 2.3118 -0.9521 0.3977 0 8
6.2929 2.4504 -0.9569 0.3957 0 8
6.2756 2.5901 -0.9620 0.3936 0 8
6.2573 2.7310 -0.9674 0.3914 0 8
6.1666 2.8403 -0.9620 0.4061 0 19
6.0065 2.9143 -0.9459 0.3867 0 19
6.1746 3.1507 -0.9822 0.3842 0 19
6.1519 3.2965 -0.9889 0.3816 0 19
5.6131 3.1546 -0.9123 0.4773 0 9
5.3540 3.1522 -0.8803 0.4946 0 9
5.1124 3.1500 -0.8508 0.5118 0 9
6.0690 3.9099 -1.0229 0.3702 0 8
6.0398 4.0651 -1.0316 0.3671 0 8
6.0091 4.2224 -1.0406 0.3639 0 8
5.9770 4.3818 -1.0501 0.3606 0 8
5.9434 4.5436 -1.0600 0.3572 0 8
5.9082 4.7078 -1.0704 0.3537 0 8
5.8713 4.8746 -1.0812 0.3502 0 8
5.8329 5.0440 -1.0926 0.3466 0 8
5.7926 5.2163 -1.1045 0.3428 0 8
5.7506 5.3916 -1.1169 0.3390 0 8
5.7066 5.5701 -1.1299 0.3351 0 8
5.6607 5.7518 -1.1434 0.3311 0 8
5.6127 5.9371 -1.1576 0.3271 0 8
5.5625 6.1261 -1.1724 0.3230 0 8
5.5665 6.3838 -1.2001 0.3498 0 0
5.5027 6.5727 -1.2146 0.3174 0 0
5.4433 6.7739 -1.2313 0.3131 0 0
5.3814 6.9795 -1.2487 0.3087 0 0
5.3166 7.1899 -1.2670 0.3042 0 0
5.2490 7.4052 -1.2861 0.2997 0 0
5.1783 7.6258 -1.3061 0.2951 0 0
5.1044 7.8520 -1.3270 0.2905 0 0
5.0271 8.0842 -1.3489 0.2858 0 0
4.9462 8.3226 -1.3718 0.2810 0 0
4.8621 8.5684 -1.3959 0.2729 0 0
4.7751 8.8237 -1.4216 0.2679 0 0
4.6839 9.0868 -1.4485 0.2630 0 0
4.5881 9.3582 -1.4768 0.2579 0 0
4.4875 9.6384 -1.5064 0.2529 0 0
4.3808 9.9258 -1.5373 0.2525 0 0
4.2686 10.2228 -1.5697 0.2473 0 0
4.1502 10.5297 -1.6037 0.2701 0 0
4.0131 10.8141 -1.6344 0.2651 0 0
3.8699 11.1074 -1.6666 0.2599 0 0
3.7200 11.4102 -1.7005 0.2548 0 0
3.5650 11.7298 -1.7371 0.2569 0 0
3.4059 12.0731 -1.7774 0.2511 0 0
3.2384 12.4301 -1.8200 0.2452 0 0
3.0718 12.8433 -1.8711 0.2062 0 0
2.8987 13.2950 -1.9280 0.2389 0 0
2.7061 13.7322 -1.9832 0.2322 0 0
2.5015 14.1921 -2.0419 0.2255 0 0
2.2851 14.6846 -2.1057 0.2039 0 0
2.0582 15.2358 -2.1784 0.1971 0 0
0.8639 7.5341 -1.0745 0.1665 0 11
0.7371 7.8129 -1.1119 0.1609 0 11
0.6010 8.1090 -1.1521 0.1553 0 11
0.8233 15.2641 -2.1659 0.9884 0 11
0.6117 18.0980 -2.5658 0.1895 0 0
0.2564 18.7380 -2.6552 0.1417 0 0
-0.1256 19.5886 -2.7756 0.1355 0 0
-0.5439 20.5120 -2.9074 0.1294 0 0
-1.0068 21.5864 -3.0619 0.1121 0 0
-1.5223 22.7878 -3.2360 0.1099 0 0
-2.0953 24.0780 -3.4245 0.1038 0 0
-2.7252 25.3958 -3.6190 0.1046 0 0
-2.1324 16.7009 -2.3856 0.8018 0 19
-3.2303 21.8019 -3.1228 0.1079 0 20
-2.3166 12.2236 -1.7628 0.7851 0 19
-3.2846 15.6101 -2.2602 0.8463 0 19
-2.7238 11.7663 -1.7112 0.8088 0 19
-2.9188 11.5471 -1.6876 0.8201 0 19
-3.3865 12.3475 -1.8141 0.8201 0 19
-5.5064 8.2373 -1.4039 0.4905 0 9
-5.5926 8.0130 -1.3845 0.2794 0 9
-29.7344 37.5592 -6.7875 0.2815 0 0
-29.5891 35.8702 -6.5885 0.2460 0 0
-29.4711 34.2989 -6.4074 0.2359 0 0
-13.7792 15.3992 -2.9279 0.8997 0 5
-29.9317 32.1275 -6.2216 0.4125 0 0
-30.4452 31.3894 -6.1959 0.3779 0 0
-30.7250 30.4296 -6.1271 0.6015 0 0
-31.0725 29.5608 -6.0767 0.5268 0 0
-31.2325 28.5395 -5.9946 0.5340 0 0
-37.7472 23.6387 -6.3106 0.8373 0 9
-32.9897 17.1371 -5.2674 0.8150 0 9
-31.5104 8.3158 -4.6176 0.9780 0 9
-47.9567 10.6148 -6.9594 0.5898 0 9
-42.1846 8.4516 -6.0959 0.3799 0 9
-41.8276 7.5091 -6.0213 0.2523 0 9
-41.2409 6.5512 -5.9167 0.2568 0 9
-39.5422 5.4690 -5.6561 0.9881 0 9
-38.4947 3.7552 -5.4802 0.5182 0 9
-39.7601 -9.6022 -6.7384 0.9347 0 9
-30.3312 -7.9733 -5.1665 0.9391 0 9
-40.9920 -11.6616 -7.0209 0.9773 0 9
-42.7765 -13.1040 -7.3702 0.1587 0 9
-28.9881 -12.1791 -5.1798 0.5366 0 0
-38.1074 -16.9195 -6.8688 0.8802 0 9
-30.9165 -14.4774 -5.6239 0.0894 0 0
-30.3672 -14.9715 -5.5776 0.0901 0 0
-29.8051 -15.4464 -5.5303 0.0909 0 0
-29.2312 -15.9023 -5.4820 0.0917 0 0
-30.0547 -17.1419 -5.6999 0.2379 0 0
-29.8049 -17.8026 -5.7192 0.2371 0 0
-29.5528 -18.4678 -5.7409 0.2307 0 0
-29.3084 -19.1446 -5.7671 0.2297 0 0
-29.0533 -19.8223 -5.7941 0.2286 0 0
-28.7919 -20.5037 -5.8229 0.2287 0 0
-28.6695 -21.2978 -5.8836 0.5993 0 0
-28.5783 -22.1349 -5.9550 0.5921 0 0
-28.8824 -23.3140 -6.1148 0.0712 0 0
-29.8052 -25.0647 -6.4155 0.0899 0 0
-29.9402 -26.2234 -6.5567 0.3335 0 0
-30.2437 -27.5828 -6.7432 0.3569 0 0
-30.3608 -28.8283 -6.8972 0.4716 0 0
-30.3059 -29.9572 -7.0201 0.4633 0 0
-30.1730 -31.0491 -7.1324 0.5037 0 0
-29.9798 -32.1172 -7.2379 0.4964 0 0
-29.7779 -33.2147 -7.3488 0.5334 0 0
-29.5254 -34.2954 -7.4551 0.5258 0 0
-29.3433 -35.5027 -7.5878 0.4849 0 0
-29.1285 -36.7213 -7.7216 0.5471 0 0
-28.7927 -37.8357 -7.8326 0.4477 0 0
-28.4965 -39.0506 -7.9639 0.5001 0 0
-28.1177 -40.2040 -8.0822 0.4928 0 0
-8.5132 -18.5908 -3.3685 0.2094 0 9
-2.8220 -6.5049 -1.1681 0.9029 21 18
-2.6641 -6.4954 -1.1566 0.8622 21 18
-2.5320 -6.5451 -1.1561 0.6869 21 18
-5.1023 -14.0199 -2.4578 0.5511 0 9
-4.9244 -14.4269 -2.5113 0.4352 0 9
-3.4290 -10.7474 -1.8585 0.7514 0 9
-3.1673 -10.6625 -1.8324 0.3754 0 9
-2.8810 -10.4645 -1.7881 0.4212 0 9
-2.8051 -11.0526 -1.8785 0.5744 0 9
-6.2689 -26.9623 -4.5602 0.0691 0 0
-5.3182 -25.1552 -4.2357 0.0972 0 0
-4.5520 -23.8944 -4.0071 0.1065 0 0
-3.8597 -22.7372 -3.7993 0.1108 0 0
-3.2440 -21.7502 -3.6228 0.1162 0 0
-2.6813 -20.8398 -3.4614 0.1216 0 0
-2.1352 -19.7187 -3.2675 0.9795 0 1
-1.7019 -19.3429 -3.1989 0.1412 0 0
-1.2256 -18.0863 -2.9864 0.1256 0 8
-0.8253 -17.3367 -2.8593 0.1312 0 8
-0.4112 -14.9691 -2.4669 0.8611 0 10
-0.1096 -14.8734 -2.4503 0.1831 0 10
0.1962 -15.4120 -2.5392 0.1566 0 8
0.4884 -14.8719 -2.4513 0.1622 0 8
0.7610 -14.3651 -2.3698 0.1862 0 8
1.0189 -13.9287 -2.3008 0.1918 0 8
1.2629 -13.5236 -2.2376 0.2243 0 8
1.4983 -13.1768 -2.1847 0.2321 0 8
1.8449 -13.7560 -2.2865 0.1930 0 0
2.0496 -13.2552 -2.2096 0.2072 0 0
2.2338 -12.7447 -2.1316 0.2148 0 0
2.4128 -12.3057 -2.0658 0.3158 0 0
2.6178 -12.0622 -2.0334 0.3208 0 0
2.8136 -11.8138 -2.0006 0.2243 0 0
2.9784 -11.4771 -1.9534 0.2297 0 0
3.1347 -11.1528 -1.9085 0.2351 0 0
3.2851 -10.8462 -1.8670 0.2433 0 0
3.4286 -10.5507 -1.8276 0.2485 0 0
3.5652 -10.2648 -1.7901 0.2537 0 0
3.6556 -9.8796 -1.7354 0.2528 0 8
3.7751 -9.6049 -1.7001 0.2581 0 8
3.8890 -9.3388 -1.6665 0.2633 0 8
3.9975 -9.0808 -1.6345 0.2684 0 8
4.1010 -8.8304 -1.6040 0.2736 0 8
4.1999 -8.5871 -1.5748 0.2786 0 8
4.2943 -8.3506 -1.5469 0.2836 0 8
4.3844 -8.1204 -1.5203 0.2886 0 8
4.4706 -7.8963 -1.4949 0.2935 0 8
4.5531 -7.6778 -1.4705 0.2984 0 8
4.6320 -7.4647 -1.4472 0.3032 0 8
4.5560 -7.0232 -1.3791 0.7259 0 19
4.7517 -7.0120 -1.3954 0.7265 0 19
4.8322 -6.8310 -1.3784 0.3172 0 19
4.7514 -6.4384 -1.3182 0.7211 0 19
4.9449 -6.4262 -1.3358 0.7872 0 19
5.0395 -6.2837 -1.3270 0.3307 0 8
5.0978 -6.1010 -1.3098 0.3350 0 8
5.1536 -5.9218 -1.2933 0.3393 0 8
5.3015 -5.8500 -1.3006 0.7954 0 8
5.4593 -5.7861 -1.3105 0.3476 0 7
5.5104 -5.6099 -1.2954 0.3516 0 7
5.5594 -5.4368 -1.2810 0.3556 0 7
5.6063 -5.2664 -1.2672 0.3595 0 7
5.6512 -5.0988 -1.2539 0.3633 0 7
5.6942 -4.9337 -1.2412 0.3670 0 7
5.7354 -4.7710 -1.2290 0.3706 0 7
5.7749 -4.6107 -1.2174 0.3742 0 7
5.8127 -4.4525 -1.2062 0.3776 0 7
5.8489 -4.2965 -1.1956 0.3810 0 7
5.8834 -4.1424 -1.1854 0.3843 0 7
5.9164 -3.9903 -1.1756 0.3875 0 7
5.9479 -3.8400 -1.1663 0.3906 0 7
5.9781 -3.6913 -1.1574 0.3936 0 7
6.0067 -3.5443 -1.1490 0.3965 0 7
6.0340 -3.3988 -1.1409 0.3993 0 7
6.0601 -3.2548 -1.1332 0.4020 0 7
6.0848 -3.1122 -1.1259 0.4046 0 7
6.1083 -2.9709 -1.1190 0.4071 0 7
6.1305 -2.8308 -1.1124 0.4095 0 7
6.1516 -2.6919 -1.1062 0.4118 0 7
6.1715 -2.5541 -1.1003 0.4140 0 7
6.1903 -2.4173 -1.0948 0.4161 0 7
6.2079 -2.2815 -1.0896 0.4181 0 7
6.2245 -2.1466 -1.0847 0.4200 0 7
6.2400 -2.0126 -1.0801 0.4217 0 7
6.2544 -1.8793 -1.0759 0.4234 0 7
6.2678 -1.7468 -1.0719 0.4250 0 7
6.2802 -1.6150 -1.0683 0.4264 0 7
6.2916 -1.4838 -1.0649 0.4278 0 7
6.3019 -1.3532 -1.0618 0.4290 0 7
6.3114 -1.2230 -1.0591 0.4301 0 7
6.3197 -1.0934 -1.0566 0.4311 0 7
6.3272 -0.9641 -1.0544 0.4320 0 7
6.3337 -0.8353 -1.0525 0.4328 0 7
6.3393 -0.7067 -1.0508 0.4335 0 7
6.3439 -0.5784 -1.0494 0.4341 0 7
6.3477 -0.4503 -1.0483 0.4345 0 7
6.3504 -0.3224 -1.0475 0.4349 0 7
5.1960 -0.1592 -0.8564 0.4234 184 10
4.9246 -0.0518 -0.8113 0.9891 184 10
4.9303 0.0472 -0.8122 0.4991 184 10
5.1763 0.1536 -0.8531 0.9976 184 10
6.3505 0.3163 -1.0475 0.4349 0 7
6.3478 0.4442 -1.0483 0.4345 0 7
6.3442 0.5723 -1.0494 0.4341 0 7
6.3396 0.7006 -1.0507 0.4335 0 7
6.3340 0.8291 -1.0524 0.4328 0 7
6.3276 0.9580 -1.0543 0.4321 0 7
6.3202 1.0872 -1.0565 0.4312 0 7
6.3118 1.2168 -1.0589 0.4302 0 7
6.3024 1.3469 -1.0617 0.4290 0 7
6.2921 1.4775 -1.0648 0.4278 0 7
6.2808 1.6087 -1.0681 0.4265 0 7
6.2685 1.7405 -1.0717 0.4250 0 7
6.2551 1.8730 -1.0757 0.4235 0 7
6.2407 2.0062 -1.0799 0.4218 0 7
6.2253 2.1402 -1.0845 0.4200 0 7
6.0335 2.2108 -1.0586 0.4245 0 8
5.9630 2.3220 -1.0542 0.4162 0 8
5.9451 2.4537 -1.0595 0.4141 0 8
5.9259 2.5864 -1.0652 0.4119 0 8
5.9057 2.7201 -1.0711 0.4096 0 8
5.8472 2.8369 -1.0707 0.4227 0 19
5.6630 2.8896 -1.0473 0.4047 0 19
5.8181 3.1177 -1.0874 0.4021 0 19
5.6123 3.1542 -1.0606 0.4757 0 9
5.3533 3.1518 -1.0234 0.4930 0 9
5.1118 3.1496 -0.9891 0.5101 0 9
5.7302 3.6916 -1.1229 0.3907 0 8
5.6999 3.8363 -1.1319 0.3876 0 8
5.6682 3.9828 -1.1412 0.3844 0 8
5.6349 4.1311 -1.1510 0.3812 0 8
5.6003 4.2813 -1.1613 0.3778 0 8
5.5639 4.4335 -1.1720 0.3743 0 8
5.5260 4.5878 -1.1832 0.3708 0 8
5.4864 4.7444 -1.1949 0.3672 0 8
5.4450 4.9032 -1.2071 0.3635 0 8
5.4018 5.0646 -1.2199 0.3597 0 8
5.3567 5.2286 -1.2332 0.3558 0 8
5.3097 5.3952 -1.2470 0.3518 0 8
5.2606 5.5648 -1.2615 0.3478 0 8
5.2094 5.7373 -1.2766 0.3437 0 8
5.1560 5.9130 -1.2924 0.3395 0 8
5.1002 6.0920 -1.3089 0.3352 0 8
5.0966 6.3424 -1.3404 0.3628 0 0
5.0250 6.5174 -1.3558 0.3294 0 0
4.9598 6.7073 -1.3742 0.3250 0 0
4.8918 6.9012 -1.3936 0.3205 0 0
4.8208 7.0993 -1.4137 0.3159 0 0
4.7467 7.3018 -1.4347 0.3113 0 0
4.6695 7.5090 -1.4567 0.3066 0 0
4.5887 7.7211 -1.4797 0.3018 0 0
4.5045 7.9384 -1.5037 0.2970 0 0
4.4166 8.1612 -1.5287 0.2922 0 0
4.3246 8.3898 -1.5550 0.2872 0 0
4.2293 8.6262 -1.5827 0.2789 0 0
4.1301 8.8705 -1.6120 0.2738 0 0
4.0261 9.1221 -1.6426 0.2687 0 0
3.9172 9.3813 -1.6748 0.2635 0 0
3.8029 9.6485 -1.7085 0.2583 0 0
3.6830 9.9244 -1.7439 0.2531 0 0
3.5571 10.2095 -1.7811 0.2478 0 0
3.4247 10.5045 -1.8202 0.2425 0 0
3.2854 10.8099 -1.8613 0.2371 0 0
3.1357 11.1152 -1.9026 0.2718 0 0
2.9758 11.4221 -1.9445 0.2660 0 0
2.8080 11.7402 -1.9886 0.2601 0 0
2.6316 12.0702 -2.0352 0.2541 0 0
2.4461 12.4131 -2.0843 0.2481 0 0
2.2574 12.8073 -2.1424 0.2087 0 0
0.9729 6.2521 -1.0424 0.1988 0 11
0.8714 6.4506 -1.0723 0.1933 0 11
0.7636 6.6587 -1.1041 0.1877 0 11
0.6489 6.8772 -1.1380 0.1821 0 11
0.7622 10.2847 -1.6989 0.9836 0 11
0.8399 15.5735 -2.5693 0.1900 0 0
0.5432 16.0723 -2.6493 0.1842 0 0
0.2272 16.5968 -2.7344 0.1860 0 0
-0.1098 17.1275 -2.8216 0.1803 0 0
-0.4693 17.6989 -2.9167 0.1735 0 0
-0.8547 18.3257 -3.0223 0.1675 0 0
-1.2739 19.0700 -3.1486 0.1350 0 0
-1.7345 19.9316 -3.2959 0.1289 0 0
-1.8128 16.8941 -2.7991 0.7918 0 19
-2.7899 21.8494 -3.6287 0.1162 0 0
-2.5827 17.4304 -2.9028 0.4738 0 19
-4.0497 23.9956 -4.0089 0.1087 0 0
-4.7807 25.2261 -4.2297 0.1023 0 0
-5.5957 26.5939 -4.4770 0.0966 0 0
-2.9479 12.7343 -2.1533 0.8110 0 19
-2.9011 11.4773 -1.9502 0.8223 0 19
-3.2300 11.7768 -2.0117 0.4214 0 19
-3.5688 12.0568 -2.0714 0.7956 0 19
-9.5275 29.9617 -5.1794 0.3235 0 2
-9.5794 28.1529 -4.8990 0.3416 0 2
-9.6463 26.5851 -4.6590 0.3596 0 2
-5.4543 8.5253 -1.6673 0.4785 0 9
-5.4337 8.1285 -1.6107 0.4953 0 9
-5.6698 8.1235 -1.6320 0.2747 0 9
-28.5202 39.1618 -7.9810 0.2834 0 0
-28.3760 37.3625 -7.7290 0.4163 0 0
-28.3257 35.7797 -7.5178 0.4456 0 0
-28.3033 34.3113 -7.3274 0.5468 0 0
-28.3543 32.9993 -7.1674 0.5242 0 0
-28.5149 31.8674 -7.0447 0.6538 0 0
-28.7497 30.8587 -6.9480 0.6629 0 0
-29.1277 30.0310 -6.8921 0.6196 0 0
-29.7375 29.4516 -6.8949 0.6193 0 0
-29.9901 28.5310 -6.8191 0.5439 0 0
-30.2899 27.6781 -6.7594 0.5870 0 0
-30.4310 26.7049 -6.6698 0.5949 0 0
-30.5794 25.7660 -6.5875 0.6069 0 0
-30.6998 24.8298 -6.5046 0.6147 0 0
-30.8379 23.9325 -6.4306 0.6350 0 0
-30.9174 23.0137 -6.3495 0.6431 0 0
-30.9419 22.0797 -6.2621 0.5870 0 0
-31.0051 21.1975 -6.1874 0.5941 0 0
-31.0603 20.3315 -6.1156 0.3808 0 0
-30.9886 19.4064 -6.0235 0.4127 0 0
-31.0168 18.5669 -5.9552 0.4175 0 0
-31.0049 17.7232 -5.8833 0.3207 0 0
-31.1149 16.9657 -5.8383 0.3232 0 0
-31.2138 16.2145 -5.7945 0.2907 0 0
-11.3953 4.5331 -2.0203 0.7082 0 5
-36.9651 11.3626 -6.3708 0.8046 0 9
-31.3137 8.2639 -5.3352 0.9807 0 9
-47.7250 10.5635 -8.0525 0.5906 0 9
-39.2796 5.4327 -6.5325 0.9913 0 9
-38.2686 3.7331 -6.3343 0.5195 0 9
-28.5654 -6.8987 -5.5235 0.6858 0 0
-28.5139 -7.4958 -5.5416 0.6836 0 0
-28.4586 -8.0960 -5.5613 0.6972 0 0
-28.3458 -8.6834 -5.5723 0.6365 0 0
-28.2889 -9.2918 -5.5967 0.6337 0 0
-28.2286 -9.9048 -5.6230 0.6307 0 0
-28.0998 -10.4984 -5.6383 0.6616 0 0
-27.9452 -11.0856 -5.6508 0.5456 0 0
-27.8800 -11.7136 -5.6841 0.5424 0 0
-27.7993 -12.3426 -5.7170 0.5526 0 0
-27.6893 -12.9661 -5.7469 0.5497 0 0
-27.6493 -13.6315 -5.7943 0.4069 0 0
-27.6624 -14.3360 -5.8562 0.4409 0 0
-27.5813 -15.0047 -5.9017 0.4375 0 0
-27.4838 -15.6755 -5.9471 0.4548 0 0
-27.3956 -16.3635 -5.9979 0.4045 0 0
-27.4028 -17.1242 -6.0736 0.3994 0 0
-27.4607 -17.9376 -6.1652 0.3372 0 0
-27.6612 -18.8725 -6.2941 0.2899 0 0
-27.6253 -19.6731 -6.3746 0.5188 0 0
-27.6045 -20.5066 -6.4636 0.3254 0 0
-27.7156 -21.4668 -6.5893 0.6081 0 0
-27.6118 -22.2884 -6.6698 0.6007 0 0
-27.7933 -23.3728 -6.8258 0.5072 0 0
-27.8932 -24.4304 -6.9695 0.4858 0 0
-28.1035 -25.6308 -7.1493 0.4150 0 0
-28.5335 -27.0932 -7.3957 0.2107 0 0
-28.9002 -28.5676 -7.6381 0.3418 0 0
-29.0101 -29.8524 -7.8241 0.4724 0 0
-28.8606 -30.9182 -7.9498 0.5322 0 0
-28.6313 -31.9358 -8.0619 0.5064 0 0
-28.4240 -33.0160 -8.1887 0.4835 0 0
-28.2214 -34.1453 -8.3264 0.4755 0 0
-28.0092 -35.3103 -8.4715 0.4726 0 0
-27.8159 -36.5520 -8.6335 0.5561 0 0
-27.4323 -37.5923 -8.7472 0.5244 0 0
-27.0332 -38.6533 -8.8658 0.4603 0 0
-26.6822 -39.8326 -9.0115 0.5104 0 0
-26.3216 -41.0554 -9.1666 0.4412 0 0
-8.6815 -16.2873 -3.4691 0.6268 0 9
-8.2839 -16.3234 -3.4406 0.9332 0 9
-8.2385 -17.0758 -3.5636 0.7145 0 9
-8.2128 -17.9349 -3.7077 0.9282 0 9
-2.8645 -6.6026 -1.3528 0.9430 21 5
-2.6663 -6.5008 -1.3207 0.8581 21 18
-2.5507 -6.5933 -1.3288 0.5397 21 18
-3.7931 -10.4220 -2.0847 0.4671 0 9
-3.5008 -10.2558 -2.0369 0.6255 0 9
-3.2547 -10.2011 -2.0127 0.6943 0 9
-3.0461 -10.2543 -2.0107 0.4385 0 9
-2.8792 -10.4581 -2.0389 0.3684 0 9
-2.7040 -10.6539 -2.0660 0.9207 0 9
-4.9905 -21.4638 -4.1420 0.1120 0 0
-4.3412 -20.5335 -3.9448 0.1176 0 0
-3.7522 -19.6962 -3.7687 0.1269 0 0
-3.2197 -18.9668 -3.6160 0.1323 0 0
-2.7270 -18.2844 -3.4748 0.1377 0 0
-2.2666 -17.6167 -3.3386 0.1363 0 0
-1.8469 -17.0566 -3.2247 0.1512 0 0
-1.4066 -15.9865 -3.0164 0.1434 0 8
-1.0451 -15.4224 -2.9055 0.1555 0 8
-0.7095 -14.9057 -2.8049 0.1611 0 8
-0.3961 -14.4176 -2.7110 0.1841 0 8
-0.1031 -13.9975 -2.6311 0.1901 0 8
0.1731 -13.5993 -2.5563 0.2231 0 8
0.4355 -13.2617 -2.4940 0.2286 0 8
0.6859 -12.9490 -2.4373 0.2513 0 8
0.9257 -12.6539 -2.3848 0.2358 0 8
1.1529 -12.3451 -2.3305 0.2413 0 8
1.3698 -12.0467 -2.2789 0.2466 0 8
1.5767 -11.7569 -2.2296 0.2520 0 8
1.8562 -12.0040 -2.2831 0.2197 0 0
2.0462 -11.6741 -2.2277 0.2289 0 0
2.2271 -11.3585 -2.1756 0.2344 0 0
2.3990 -11.0540 -2.1261 0.2399 0 0
2.5625 -10.7597 -2.0790 0.2453 0 0
2.7191 -10.4780 -2.0347 0.2537 0 0
2.8692 -10.2084 -1.9931 0.2590 0 0
2.9825 -9.8471 -1.9339 0.2578 0 8
3.1155 -9.5874 -1.8948 0.2632 0 8
3.2423 -9.3348 -1.8574 0.2685 0 8
3.3633 -9.0896 -1.8217 0.2737 0 8
3.4788 -8.8512 -1.7876 0.2789 0 8
3.5893 -8.6194 -1.7550 0.2841 0 8
3.6950 -8.3937 -1.7238 0.2893 0 8
3.7961 -8.1737 -1.6940 0.2944 0 8
3.8928 -7.9593 -1.6654 0.2994 0 8
3.9855 -7.7501 -1.6380 0.3044 0 8
4.0742 -7.5458 -1.6119 0.3093 0 8
4.0179 -7.0967 -1.5329 0.3142 0 19
4.1640 -7.0216 -1.5344 0.8495 0 19
4.3040 -6.9361 -1.5343 0.3239 0 19
4.2446 -6.5431 -1.4660 0.3286 0 19
