ply
format ascii 1.0
element vertex 1340
property float32 x
property float32 y
property float32 z
property float32 CosAngle
property uint32 ObjIdx
property uint32 ObjTag
end_header
-27.7271 -18.0192 2.7993 0.1843 0 9
-26.1064 -17.7228 2.6711 0.1212 0 9
-27.5489 -19.5229 2.8583 0.2325 0 9
-25.7061 -19.0050 2.7062 0.0903 0 9
-28.1627 -21.7106 3.0102 0.1417 0 9
-25.3063 -20.3330 2.7481 0.0747 0 9
-31.5646 -26.4235 3.4847 0.3542 0 9
-30.8014 -26.8563 3.4594 0.2172 0 9
-24.3518 -22.1106 2.7844 0.4064 0 9
-23.3767 -22.0990 2.7232 0.3335 0 9
-22.3086 -21.9555 2.6496 0.1042 0 9
-22.1930 -22.7383 2.6897 0.3443 0 9
-18.4979 -19.7312 2.2895 0.1558 0 9
-18.1582 -20.1670 2.2973 0.2265 0 9
-17.8018 -20.5893 2.3041 0.2258 0 9
-17.7475 -21.3809 2.3523 0.4291 0 9
-17.0890 -21.4513 2.3217 0.2182 0 9
-16.1345 -21.1107 2.2493 0.0541 0 9
-21.3026 -29.0661 3.0506 0.3921 0 9
-20.7590 -29.5532 3.0573 0.4448 0 9
-20.1139 -29.8956 3.0502 0.1583 0 9
-20.1980 -31.3646 3.1580 0.2505 0 9
-22.0976 -35.8799 3.5672 0.2006 0 9
-21.1571 -35.9528 3.5314 0.1118 0 9
-21.6462 -38.5363 3.7416 0.3797 0 9
-21.5262 -40.1952 3.8598 0.1770 0 9
-20.2255 -39.6632 3.7690 0.1307 0 9
-19.4711 -40.1596 3.7781 0.3129 0 9
4.4460 -14.7511 1.3042 0.9080 0 9
4.7031 -14.5389 1.2936 0.9611 0 9
8.3024 -24.0059 2.1503 0.2045 0 1
8.0424 -21.8229 1.9688 0.2233 0 1
7.8226 -19.9786 1.8163 0.2422 0 1
8.2478 -19.8774 1.8218 0.9657 0 1
8.7398 -19.9217 1.8416 0.9604 0 1
9.1935 -19.8601 1.8526 0.9547 0 1
9.6527 -19.7977 1.8645 0.9486 0 1
10.1180 -19.7344 1.8774 0.9421 0 1
10.5900 -19.6702 1.8911 0.9352 0 1
11.0692 -19.6050 1.9059 0.9280 0 1
9.8927 -16.7263 1.6450 0.3788 0 10
10.1634 -16.4211 1.6348 0.4055 0 10
10.4711 -16.1816 1.6316 0.4565 0 10
10.8088 -15.9891 1.6338 0.4057 0 10
13.3109 -18.8613 1.9542 0.9039 0 1
13.5766 -18.4391 1.9384 0.9732 0 1
13.9086 -18.1153 1.9334 0.9938 0 1
14.3619 -17.9466 1.9458 0.8569 0 1
14.8229 -17.7776 1.9594 0.8419 0 1
15.6171 -17.9821 2.0162 0.2826 0 1
6.2600 -6.9217 0.7900 0.7002 21 5
15.2795 -16.2264 1.8867 0.0877 0 0
14.8267 -15.1242 1.7929 0.1233 0 0
14.6309 -14.3360 1.7340 0.1275 0 0
14.4105 -13.5628 1.6752 0.1285 0 0
14.3518 -12.9733 1.6377 0.2314 0 0
14.4390 -12.5337 1.6185 0.2341 0 0
14.5325 -12.1110 1.6014 0.2381 0 0
14.6663 -11.7309 1.5898 0.2398 0 0
14.8003 -11.3576 1.5793 0.2414 0 0
14.8701 -10.9431 1.5629 0.1543 0 0
14.7729 -10.4201 1.5303 0.1577 0 0
14.6754 -9.9155 1.4993 0.1610 0 0
14.5848 -9.4327 1.4703 0.1642 0 0
14.3871 -8.8996 1.4321 0.1590 0 8
14.2991 -8.4523 1.4061 0.1619 0 8
14.2170 -8.0224 1.3819 0.1648 0 8
14.1405 -7.6084 1.3593 0.1675 0 8
14.0691 -7.2090 1.3382 0.1701 0 8
14.0025 -6.8229 1.3186 0.1727 0 8
13.8157 -6.3913 1.2886 0.5384 0 19
13.4109 -5.8796 1.2396 0.1774 0 19
13.8287 -5.7339 1.2673 0.1797 0 8
13.7786 -5.3910 1.2525 0.1818 0 8
14.0792 -5.1846 1.2701 0.4692 0 8
14.2118 -4.9112 1.2729 0.1857 0 7
14.1704 -4.5800 1.2607 0.1875 0 7
14.1323 -4.2557 1.2494 0.1892 0 7
14.0972 -3.9377 1.2390 0.1908 0 7
14.0651 -3.6254 1.2296 0.1922 0 7
14.0358 -3.3183 1.2209 0.1936 0 7
14.0092 -3.0159 1.2131 0.1948 0 7
13.9854 -2.7177 1.2061 0.1960 0 7
13.9641 -2.4232 1.1998 0.1970 0 7
13.9454 -2.1320 1.1942 0.1979 0 7
13.9291 -1.8436 1.1894 0.1987 0 7
13.9151 -1.5577 1.1853 0.1994 0 7
13.9036 -1.2739 1.1819 0.2000 0 7
13.8944 -0.9917 1.1792 0.2005 0 7
13.8875 -0.7108 1.1772 0.2008 0 7
13.8829 -0.4309 1.1758 0.2010 0 7
13.8805 -0.1515 1.1751 0.2012 0 7
13.8804 0.1277 1.1751 0.2012 0 7
13.8826 0.4071 1.1757 0.2010 0 7
13.8870 0.6870 1.1770 0.2008 0 7
13.8937 0.9678 1.1790 0.2005 0 7
13.9027 1.2498 1.1817 0.2000 0 7
13.9140 1.5335 1.1850 0.1995 0 7
13.9278 1.8192 1.1890 0.1988 0 7
13.9438 2.1073 1.1938 0.1980 0 7
13.9624 2.3983 1.1993 0.1971 0 7
13.9835 2.6925 1.2055 0.1961 0 7
13.4911 2.8802 1.1678 0.1950 0 8
13.5164 3.1712 1.1753 0.1937 0 8
13.5443 3.4665 1.1835 0.1924 0 8
13.5289 3.7541 1.1885 0.1909 0 19
13.5624 4.0588 1.1984 0.1893 0 19
10.6843 3.4331 0.9500 0.1718 0 9
9.5225 3.2725 0.8524 0.1915 0 9
13.7275 5.0285 1.2376 0.1840 0 8
13.7737 5.3620 1.2512 0.1820 0 8
13.8234 5.7041 1.2659 0.1798 0 8
13.8769 6.0556 1.2817 0.1776 0 8
13.9345 6.4173 1.2987 0.1753 0 8
13.9962 6.7902 1.3169 0.1729 0 8
14.1951 7.2429 1.3490 0.1864 0 0
14.2512 7.6367 1.3687 0.1690 0 0
14.3199 8.0483 1.3905 0.1664 0 0
14.3938 8.4751 1.4140 0.1636 0 0
14.4731 8.9186 1.4391 0.1608 0 0
14.5583 9.3803 1.4661 0.1578 0 0
14.6500 9.8618 1.4950 0.1548 0 0
14.7485 10.3652 1.5260 0.1516 0 0
8.3422 6.1173 0.8757 0.4695 0 11
8.1114 6.2026 0.8644 0.8616 0 11
8.0735 6.4351 0.8740 0.8521 0 11
8.0040 6.6472 0.8808 0.8424 0 11
7.9643 6.8896 0.8914 0.8322 0 11
7.9539 7.1653 0.9062 0.8218 0 11
7.8587 7.3712 0.9121 0.8110 0 11
7.8157 7.6321 0.9247 0.8000 0 11
7.7713 7.9002 0.9381 0.7886 0 11
7.7338 8.1851 0.9533 0.1128 0 11
7.8576 8.6585 0.9898 0.1087 0 11
15.9934 18.3520 2.0607 0.1044 0 0
16.2943 19.4746 2.1495 0.1001 0 0
16.6282 20.7059 2.2480 0.0957 0 0
17.0004 22.0639 2.3579 0.0913 0 0
17.4175 23.5711 2.4810 0.0867 0 0
17.8879 25.2550 2.6198 0.0821 0 0
18.4221 27.1509 2.7775 0.0775 0 0
19.0336 29.3038 2.9580 0.0727 0 0
18.8450 30.3319 3.0229 0.7640 0 11
17.9317 30.2003 2.9733 0.6268 0 11
17.0334 30.0480 2.9239 0.7889 0 11
16.2001 29.9674 2.8838 0.8009 0 11
15.3707 29.8532 2.8425 0.8125 0 11
14.5464 29.7056 2.8000 0.8238 0 11
17.6365 37.9289 3.5409 0.5498 0 1
17.3814 39.4358 3.6483 0.5177 0 1
16.8140 40.3274 3.6987 0.8562 0 1
15.8160 40.1911 3.6563 0.8661 0 1
14.8403 40.0579 3.6162 0.8757 0 1
14.3417 41.2397 3.6961 0.4656 0 1
1.7130 7.1826 0.6251 0.9590 0 9
1.5777 7.2592 0.6289 0.9532 0 9
1.4406 7.3368 0.6329 0.9471 0 9
1.3014 7.4131 0.6371 0.9661 0 9
-29.6752 37.3810 4.0403 0.2099 0 9
-31.1692 36.1744 4.0422 0.4098 0 9
-31.5578 35.1695 4.0000 0.4203 0 9
-32.0245 34.2771 3.9710 0.1682 0 9
-33.7380 34.6855 4.0961 0.1088 0 9
-30.3400 29.9621 3.6097 0.2975 0 9
-31.0656 29.4684 3.6247 0.4409 0 9
-31.3865 28.5957 3.5943 0.3643 0 9
-32.5360 28.4668 3.6596 0.4310 0 9
-34.6096 29.0733 3.8263 0.3338 0 9
-3.7541 3.0269 0.4082 0.3022 0 5
-30.0012 23.2096 3.2109 0.3448 0 9
-30.4987 22.6290 3.2148 0.3493 0 9
-30.8791 21.9622 3.2077 0.2621 0 9
-30.4247 20.7302 3.1165 0.0066 0 9
-26.6473 14.4726 2.5670 0.2654 0 9
-26.3086 13.6108 2.5075 0.2717 0 9
-25.6323 12.6140 2.4183 0.1832 0 9
-25.7106 12.0164 2.4024 0.3484 0 9
-26.2925 11.6500 2.4344 0.3438 0 9
-26.8375 11.2512 2.4634 0.4037 0 9
-27.2871 10.7998 2.4843 0.4003 0 9
-27.7467 10.3412 2.5067 0.3967 0 9
-28.2170 9.8748 2.5307 0.3930 0 9
-30.5208 -1.6295 1.8953 0.2460 0 9
-31.6728 -2.3306 1.9694 0.4823 0 9
-34.3373 -3.2223 2.1386 0.5343 0 9
-30.7392 -3.5096 1.9185 0.0244 0 9
-30.4241 -4.0951 1.9036 0.1295 0 9
-30.7059 -4.7636 1.9269 0.0543 0 9
-31.5161 -5.5406 1.9843 0.1301 0 9
-27.4883 -5.4046 1.7372 0.5689 0 9
-27.2514 -5.9296 1.7294 0.0853 0 9
-25.3321 -6.0481 1.6150 0.1747 0 9
-44.6468 -11.6133 2.8607 0.1029 0 9
-46.3213 -13.0489 2.9842 0.2661 0 9
-29.3538 -9.5589 1.9143 0.2136 0 9
-27.1826 -10.0780 1.7977 0.0834 0 9
-27.5304 -10.8416 1.8348 0.1574 0 9
-27.6293 -11.5277 1.8565 0.1556 0 9
-27.7351 -12.2325 1.8797 0.1537 0 9
-30.6215 -14.2479 2.0943 0.3011 0 9
-29.7807 -14.5923 2.0565 0.0481 0 9
-31.5693 -16.2641 2.2021 0.3999 0 9
-22.0715 -11.9385 1.5561 0.9309 0 9
-30.3076 -17.1903 2.1606 0.4076 0 9
-39.6846 -24.6693 2.8976 0.1153 0 9
-39.2465 -25.5054 2.9024 0.4314 0 9
-33.7446 -22.9082 2.5291 0.1939 0 9
-25.4249 -18.0176 1.9323 0.2073 0 9
-24.9896 -18.4752 1.9271 0.1895 0 9
-28.3393 -21.8467 2.2188 0.1746 0 9
-31.8932 -25.6255 2.5370 0.3914 0 9
-30.5759 -25.5957 2.4727 0.2106 0 9
-30.2539 -26.3790 2.4890 0.1869 0 9
-29.3653 -26.6625 2.4596 0.1891 0 9
-28.5006 -26.9428 2.4320 0.1913 0 9
-23.4505 -23.0793 2.0403 0.3786 0 9
-32.6647 -33.4674 2.9000 0.1958 0 9
-19.2951 -20.5817 1.7494 0.3252 0 9
-18.2645 -20.2850 1.6926 0.3362 0 9
-18.6847 -21.6104 1.7715 0.3535 0 9
-18.1208 -21.8305 1.7593 0.2789 0 9
-22.7192 -28.5184 2.2610 0.3820 0 9
-21.3149 -27.8887 2.1767 0.5016 0 9
-20.6386 -28.1602 2.1650 0.4608 0 9
-19.5909 -27.8903 2.1135 0.1568 0 9
-18.3605 -27.2896 2.0396 0.1625 0 9
-20.2961 -31.5170 2.3246 0.2996 0 9
-22.0337 -35.7760 2.6055 0.3923 0 9
-24.2600 -41.2255 2.9662 0.1665 0 9
-22.6957 -40.4046 2.8737 0.3940 0 9
-21.2360 -39.6533 2.7893 0.5606 0 9
-19.9123 -39.0487 2.7180 0.1661 0 9
-19.2931 -39.7923 2.7422 0.1647 0 9
-18.5443 -40.2927 2.7504 0.2516 0 9
-17.6046 -40.3693 2.7309 0.3705 0 9
-16.3735 -39.7077 2.6634 0.2931 0 9
-15.1708 -38.9986 2.5948 0.3242 0 9
4.4666 -14.8191 0.9598 0.9053 0 9
4.7223 -14.5982 0.9514 0.9132 0 9
11.5437 -33.3778 2.1900 0.9531 0 9
8.2782 -22.4628 1.4845 0.2173 0 1
8.0333 -20.5166 1.3663 0.2354 0 1
8.2554 -19.8957 1.3357 0.9664 0 1
8.7480 -19.9402 1.3503 0.9611 0 1
9.2020 -19.8786 1.3584 0.9554 0 1
9.6618 -19.8163 1.3671 0.9493 0 1
5.5728 -10.8694 0.7574 0.5926 0 9
5.8004 -10.7739 0.7587 0.7949 0 9
5.9994 -10.6259 0.7567 0.7823 0 9
6.2858 -10.6281 0.7657 0.4810 0 9
6.5320 -10.5539 0.7696 0.7462 0 9
9.7811 -15.1152 1.1164 0.3771 0 10
10.0719 -14.8989 1.1152 0.7215 0 10
10.4744 -14.8420 1.1265 0.8894 0 10
10.8843 -14.7825 1.1383 0.7099 0 10
13.8899 -18.0910 1.4143 0.9737 0 1
13.7748 -17.2130 1.3671 0.1571 0 0
13.5476 -16.2480 1.3118 0.1522 0 0
13.3193 -15.3363 1.2596 0.1843 0 0
6.2750 -6.9383 0.5801 0.9915 21 5
13.0789 -13.8894 1.1830 0.1962 0 0
12.9715 -13.2317 1.1490 0.2020 0 0
12.8945 -12.6346 1.1195 0.2290 0 0
13.0024 -12.2376 1.1072 0.2316 0 0
13.1094 -11.8502 1.0958 0.2340 0 0
13.2156 -11.4717 1.0852 0.2363 0 0
13.2099 -11.0088 1.0663 0.1608 0 0
13.1478 -10.5163 1.0440 0.1643 0 0
13.0903 -10.0454 1.0232 0.1676 0 0
13.0367 -9.5939 1.0037 0.1709 0 0
12.8349 -9.0532 0.9740 0.1715 0 8
12.7739 -8.6307 0.9560 0.1747 0 8
12.7169 -8.2246 0.9391 0.1779 0 8
12.6634 -7.8334 0.9234 0.1809 0 8
12.6134 -7.4559 0.9086 0.1839 0 8
12.5665 -7.0911 0.8948 0.1867 0 8
12.2917 -6.6137 0.8656 0.5882 0 19
12.0576 -6.1783 0.8401 0.1921 0 19
12.3428 -6.0142 0.8514 0.5552 0 19
12.4071 -5.7397 0.8477 0.1971 0 8
12.4036 -5.4380 0.8398 0.5529 0 8
12.8135 -5.3130 0.8602 0.2016 0 7
12.7831 -5.0016 0.8512 0.2038 0 7
12.7548 -4.6970 0.8429 0.2058 0 7
12.7286 -4.3987 0.8351 0.2077 0 7
12.7042 -4.1061 0.8279 0.2095 0 7
12.6818 -3.8189 0.8213 0.2112 0 7
12.6611 -3.5366 0.8152 0.2128 0 7
12.6421 -3.2587 0.8096 0.2142 0 7
12.6247 -2.9848 0.8044 0.2156 0 7
12.6090 -2.7145 0.7998 0.2168 0 7
12.5948 -2.4475 0.7956 0.2180 0 7
12.5821 -2.1834 0.7919 0.2190 0 7
12.5710 -1.9219 0.7886 0.2199 0 7
12.5613 -1.6626 0.7857 0.2207 0 7
12.5530 -1.4052 0.7833 0.2214 0 7
12.5461 -1.1495 0.7813 0.2220 0 7
12.5407 -0.8951 0.7796 0.2225 0 7
12.5365 -0.6417 0.7784 0.2228 0 7
12.5337 -0.3890 0.7776 0.2230 0 7
12.5323 -0.1368 0.7772 0.2232 0 7
12.5323 0.1153 0.7772 0.2232 0 7
12.5336 0.3675 0.7775 0.2231 0 7
12.5362 0.6201 0.7783 0.2228 0 7
12.5403 0.8735 0.7795 0.2225 0 7
12.5456 1.1278 0.7811 0.2220 0 7
12.5523 1.3834 0.7831 0.2215 0 7
12.5605 1.6406 0.7855 0.2208 0 7
12.5701 1.8997 0.7883 0.2200 0 7
12.5812 2.1610 0.7916 0.2191 0 7
12.5937 2.4249 0.7953 0.2181 0 7
12.6077 2.6917 0.7994 0.2169 0 7
12.3164 2.8896 0.7845 0.1456 0 8
12.1748 3.1160 0.7793 0.2144 0 8
11.7794 3.2686 0.7580 0.2129 0 19
11.9677 3.5816 0.7746 0.9653 0 19
10.6293 3.4154 0.6923 0.1730 0 9
12.2575 4.2124 0.8037 0.2078 0 8
12.2827 4.4992 0.8112 0.2059 0 8
12.3097 4.7921 0.8191 0.2039 0 8
12.3388 5.0915 0.8277 0.2018 0 8
12.3700 5.3980 0.8369 0.1996 0 8
12.4034 5.7122 0.8468 0.1973 0 8
12.4392 6.0348 0.8574 0.1948 0 8
12.4774 6.3665 0.8686 0.1923 0 8
12.5183 6.7080 0.8807 0.1897 0 8
12.6717 7.1220 0.9014 0.1883 0 0
12.7124 7.4851 0.9148 0.1856 0 0
12.7560 7.8605 0.9291 0.1827 0 0
12.8027 8.2491 0.9444 0.1798 0 0
12.8527 8.6520 0.9607 0.1767 0 0
12.9063 9.0705 0.9782 0.1736 0 0
8.3261 6.1054 0.6402 0.4712 0 11
8.1713 6.2485 0.6379 0.8567 0 11
8.1048 6.4600 0.6427 0.5061 0 11
8.0645 6.6975 0.6500 0.8374 0 11
8.0560 6.9690 0.6605 0.8273 0 11
8.0156 7.2208 0.6690 0.8168 0 11
7.9739 7.4793 0.6779 0.8061 0 11
7.9311 7.7448 0.6874 0.7950 0 11
7.8568 7.9872 0.6947 0.7835 0 11
7.8415 8.2990 0.7080 0.7718 0 11
7.7945 8.5889 0.7192 0.7598 0 11
7.7458 8.8882 0.7311 0.7475 0 11
7.6661 9.1624 0.7408 0.7348 0 11
7.6433 9.5177 0.7569 0.7219 0 11
7.5891 9.8496 0.7711 0.7087 0 11
7.5328 10.1942 0.7860 0.6952 0 11
7.4240 10.4816 0.7965 0.6815 0 11
7.3632 10.8521 0.8132 0.6675 0 11
7.3322 11.2885 0.8347 0.0945 0 11
7.4833 12.0448 0.8793 0.0897 0 11
15.3132 25.7905 1.8599 0.0849 0 0
15.7082 27.7106 1.9752 0.0823 0 0
16.1620 29.8971 2.1075 0.8031 0 11
15.3538 29.8204 2.0799 0.8148 0 11
14.5307 29.6733 2.0489 0.8261 0 11
13.7479 29.5660 2.0220 0.8371 0 11
13.0012 29.4979 1.9990 0.8478 0 11
12.2413 29.3596 1.9725 0.8581 0 11
11.5288 29.2962 1.9523 0.8680 0 11
14.8291 40.0276 2.6470 0.4770 0 1
14.5393 41.8077 2.7448 0.4600 0 1
1.7185 7.2057 0.4594 0.9575 0 9
1.5828 7.2827 0.4621 0.9517 0 9
1.4453 7.3607 0.4652 0.9456 0 9
-30.0058 36.2746 2.9192 0.0668 0 9
-30.8000 35.7459 2.9260 0.4227 0 9
-31.1777 34.7459 2.8948 0.3268 0 9
-31.5804 33.8018 2.8685 0.0964 0 9
-33.6852 34.6312 2.9958 0.1553 0 9
-30.3741 29.9958 2.6472 0.3845 0 9
-30.8050 29.2212 2.6329 0.4011 0 9
-30.6213 27.8985 2.5687 0.2113 0 9
-31.6660 27.7055 2.6091 0.2080 0 9
-34.1404 28.6792 2.7649 0.0236 0 9
-3.7221 3.0011 0.2965 0.8607 0 5
-29.8167 23.0668 2.3376 0.4551 0 9
-30.6443 22.7368 2.3662 0.5509 0 9
-31.5200 22.4180 2.3985 0.5435 0 9
-41.8896 24.9831 3.0245 0.2226 0 9
-41.8753 23.8461 2.9882 0.2253 0 9
-27.0241 14.6772 1.9070 0.3200 0 9
-27.1798 14.0614 1.8976 0.3215 0 9
-27.3358 13.4523 1.8892 0.3230 0 9
-27.4345 12.8221 1.8778 0.2584 0 9
-25.0952 11.1194 1.7021 0.1790 0 9
-25.0201 10.4893 1.6823 0.1216 0 9
-25.9738 10.2800 1.7322 0.3545 0 9
-26.4489 9.8575 1.7503 0.4169 0 9
-46.3670 16.2265 3.0462 0.5056 0 9
-42.8478 14.0341 2.7958 0.5054 0 9
-30.1932 -1.6120 1.1923 0.3941 0 9
-30.0955 -2.2146 1.1899 0.3949 0 9
-30.8230 -2.8924 1.2207 0.2226 0 9
-32.8588 -3.7516 1.3040 0.4268 0 9
-30.9232 -4.1622 1.2303 0.1427 0 9
-30.8992 -4.7935 1.2329 0.1487 0 9
-31.0241 -5.4540 1.2420 0.1972 0 9
-25.6577 -5.0446 1.0311 0.1573 0 9
-26.0497 -5.6681 1.0512 0.0544 0 9
-41.7501 -9.9678 1.6925 0.3011 0 9
-46.0631 -11.9817 1.8767 0.4343 0 9
-28.4544 -8.0157 1.1656 0.1092 0 9
-29.3856 -10.8948 1.2358 0.8895 0 9
-31.6030 -13.1857 1.3503 0.3195 0 9
-31.4662 -13.8780 1.3561 0.4262 0 9
-30.3208 -14.1080 1.3187 0.3308 0 9
-30.0971 -14.7473 1.3216 0.2375 0 9
-30.5464 -15.7371 1.3549 0.3808 0 9
-21.9526 -11.8742 0.9842 0.9370 0 9
-31.2118 -17.7032 1.4149 0.3790 0 9
-29.6344 -18.4217 1.3759 0.1129 0 9
-29.9500 -19.4638 1.4084 0.1103 0 9
-34.0050 -23.0849 1.6206 0.2566 0 9
-27.4395 -19.4453 1.3261 0.8247 0 9
-27.8562 -20.5946 1.3660 0.3811 0 9
-27.4547 -21.1649 1.3669 0.1818 0 9
-26.7129 -21.4631 1.3512 0.0636 0 9
-23.7663 -21.5788 1.2658 0.2262 0 9
-22.7871 -21.5416 1.2365 0.2316 0 9
-19.6797 -19.3683 1.0888 0.1058 0 9
-21.6887 -22.2216 1.2244 0.1447 0 9
-22.1766 -23.6552 1.2785 0.2125 0 9
-19.5670 -21.7316 1.1531 0.3517 0 9
-18.5969 -21.5088 1.1212 0.2451 0 9
-17.7858 -21.4271 1.0980 0.1533 0 9
-17.4498 -21.9042 1.1043 0.2364 0 9
-17.0611 -22.3230 1.1079 0.2357 0 9
-21.2651 -29.0149 1.4185 0.2562 0 9
-20.5291 -29.2260 1.4083 0.2581 0 9
-15.9180 -23.6593 1.1244 0.0323 0 9
-18.9638 -29.4482 1.3811 0.1267 0 9
-20.0956 -32.6292 1.5111 0.2160 0 9
-20.9730 -35.6399 1.6306 0.2449 0 9
-20.0896 -35.7652 1.6175 0.1576 0 9
-19.1807 -35.8154 1.6020 0.1324 0 9
-18.0897 -35.4749 1.5702 0.1351 0 9
7.3891 -34.2819 1.3828 0.8356 0 9
8.0523 -34.0217 1.3786 0.9029 0 9
8.7075 -33.7468 1.3742 0.5406 0 9
9.3981 -33.6133 1.3762 0.6513 0 9
10.1155 -33.5610 1.3821 0.9761 0 9
4.7439 -14.6651 0.6078 0.9101 0 9
11.5138 -33.2914 1.3888 0.1850 0 2
8.5275 -23.1393 0.9724 0.2112 0 1
4.4694 -11.4150 0.4833 0.4376 0 9
4.5875 -11.0562 0.4720 0.8015 0 9
4.7645 -10.8603 0.4676 0.5224 0 9
5.0732 -10.9595 0.4762 0.7143 0 9
5.2462 -10.7601 0.4720 0.7306 0 9
5.5245 -10.7753 0.4775 0.4437 0 9
5.7520 -10.6840 0.4784 0.8974 0 9
5.9664 -10.5674 0.4785 0.7875 0 9
6.3065 -10.6631 0.4885 0.7539 0 9
6.5934 -10.6530 0.4940 0.9699 0 9
9.6532 -14.9177 0.7006 0.9284 0 10
6.8522 -10.1363 0.4825 0.6049 0 2
10.4208 -14.7660 0.7126 0.8913 0 10
11.2211 -15.2400 0.7462 0.5433 0 10
11.2650 -14.6721 0.7294 0.1319 0 8
11.1913 -13.9846 0.7063 0.1526 0 8
11.1604 -13.3851 0.6872 0.1799 0 8
11.1913 -12.8861 0.6730 0.1853 0 8
6.3212 -6.9894 0.3716 0.5444 21 5
11.8263 -12.5592 0.6802 0.2172 0 0
11.7616 -11.9976 0.6625 0.2231 0 0
11.7935 -11.5557 0.6510 0.2507 0 0
11.7541 -11.0627 0.6365 0.1712 0 0
11.7137 -10.5885 0.6226 0.1750 0 0
11.6759 -10.1352 0.6096 0.1787 0 0
11.6437 -9.7037 0.5976 0.1827 0 0
11.5022 -9.2000 0.5808 0.1831 0 8
11.4652 -8.7982 0.5699 0.1866 0 8
11.4304 -8.4118 0.5596 0.1900 0 8
11.3978 -8.0395 0.5500 0.1934 0 8
11.3672 -7.6803 0.5409 0.1966 0 8
11.3384 -7.3331 0.5324 0.1997 0 8
11.3113 -6.9970 0.5245 0.2028 0 8
11.2859 -6.6712 0.5170 0.2057 0 8
11.2620 -6.3550 0.5099 0.2086 0 8
11.2396 -6.0476 0.5033 0.2113 0 8
11.2185 -5.7483 0.4971 0.2139 0 8
11.4475 -5.5779 0.5021 0.5625 0 8
11.6078 -5.3699 0.5043 0.2189 0 7
11.5898 -5.0812 0.4990 0.2213 0 7
11.5729 -4.7986 0.4940 0.2235 0 7
11.5571 -4.5219 0.4894 0.2256 0 7
11.5424 -4.2505 0.4850 0.2276 0 7
11.5287 -3.9840 0.4810 0.2296 0 7
11.5161 -3.7221 0.4772 0.2314 0 7
11.5043 -3.4643 0.4737 0.2331 0 7
11.4934 -3.2104 0.4705 0.2346 0 7
11.4835 -2.9600 0.4676 0.2361 0 7
11.4744 -2.7128 0.4649 0.2375 0 7
11.4661 -2.4684 0.4625 0.2387 0 7
11.4586 -2.2267 0.4603 0.2399 0 7
11.4520 -1.9873 0.4583 0.2409 0 7
11.4461 -1.7499 0.4566 0.2418 0 7
11.4409 -1.5143 0.4551 0.2426 0 7
11.4366 -1.2803 0.4538 0.2433 0 7
11.4330 -1.0475 0.4527 0.2439 0 7
11.4301 -0.8158 0.4519 0.2444 0 7
11.4279 -0.5849 0.4512 0.2447 0 7
11.4264 -0.3546 0.4508 0.2449 0 7
5.7109 -0.0623 0.2252 0.5850 184 4
5.6841 0.0523 0.2242 0.8305 184 4
11.4263 0.3351 0.4508 0.2449 0 7
11.4277 0.5653 0.4512 0.2447 0 7
11.4299 0.7961 0.4518 0.2444 0 7
11.4327 1.0277 0.4526 0.2439 0 7
11.4363 1.2604 0.4537 0.2434 0 7
11.4406 1.4943 0.4550 0.2427 0 7
11.4456 1.7298 0.4564 0.2419 0 7
11.4514 1.9670 0.4582 0.2410 0 7
11.4581 2.2062 0.4601 0.2400 0 7
11.4654 2.4478 0.4623 0.2388 0 7
11.0509 2.5927 0.4476 0.2376 0 8
11.0596 2.8306 0.4501 0.2362 0 8
11.0691 3.0715 0.4530 0.2348 0 8
10.7037 3.2033 0.4406 0.2332 0 19
10.5749 3.3979 0.4380 0.1741 0 9
10.7549 3.6960 0.4484 0.2991 0 19
11.1160 4.0719 0.4668 0.2278 0 8
11.1300 4.3328 0.4710 0.2258 0 8
11.1452 4.5989 0.4754 0.2237 0 8
11.1613 4.8706 0.4802 0.2215 0 8
11.1786 5.1481 0.4853 0.2191 0 8
11.1971 5.4322 0.4907 0.2167 0 8
11.2167 5.7233 0.4965 0.2142 0 8
11.2377 6.0218 0.5027 0.2115 0 8
11.2600 6.3285 0.5093 0.2088 0 8
11.4096 6.7180 0.5221 0.2221 0 0
11.4065 7.0289 0.5283 0.2046 0 0
11.4284 7.3635 0.5361 0.2016 0 0
11.4517 7.7089 0.5443 0.1985 0 0
11.4768 8.0658 0.5531 0.1954 0 0
8.3100 6.0936 0.4063 0.4726 0 11
7.9509 6.0798 0.3946 0.4935 0 2
7.5663 6.0307 0.3815 0.8399 0 2
8.1258 6.7484 0.4165 0.8321 0 11
8.1180 7.0225 0.4232 0.8219 0 11
8.0780 7.2771 0.4287 0.8114 0 11
8.0369 7.5383 0.4345 0.8007 0 11
7.9675 7.7804 0.4391 0.5912 0 11
7.9206 8.0521 0.4454 0.7781 0 11
7.9061 8.3675 0.4539 0.7664 0 11
7.8598 8.6609 0.4612 0.7543 0 11
7.7820 8.9296 0.4670 0.7420 0 11
7.7326 9.2418 0.4751 0.7293 0 11
7.7107 9.6017 0.4856 0.7164 0 11
7.6573 9.9382 0.4947 0.7032 0 11
7.5728 10.2483 0.5025 0.6897 0 11
7.5152 10.6103 0.5127 0.6759 0 11
7.4837 11.0297 0.5256 0.6619 0 11
7.3976 11.3893 0.5355 0.7531 0 11
7.3267 11.7927 0.5474 0.6330 0 11
7.2857 12.2706 0.5627 0.6182 0 11
7.2061 12.7121 0.5762 0.7911 0 11
7.1367 13.2018 0.5917 0.5879 0 11
7.0562 13.7047 0.6078 0.5723 0 11
6.9444 14.1813 0.6226 0.5566 0 11
6.8347 14.6986 0.6392 0.5406 0 11
6.7396 15.2910 0.6589 0.5244 0 11
6.8992 16.5474 0.7069 0.0711 0 11
11.5027 29.2300 1.2386 0.8699 0 11
10.8064 29.1691 1.2266 0.8795 0 11
10.0987 29.0384 1.2123 0.8888 0 11
9.4298 28.9813 1.2018 0.8977 0 11
8.7427 28.8276 1.1879 0.9063 0 11
1.8586 7.1524 0.2914 0.9609 0 9
1.7240 7.2289 0.2930 0.9555 0 9
1.5879 7.3063 0.2948 0.9498 0 9
1.4500 7.3846 0.2967 0.9436 0 9
4.1497 30.8879 1.2289 0.3037 0 20
-7.9071 13.4893 0.6165 0.6738 0 5
-27.8677 35.1041 1.7673 0.1372 0 9
-29.2175 35.3216 1.8075 0.1575 0 9
-30.1470 34.9881 1.8211 0.4222 0 9
-27.1440 30.2505 1.6026 0.3350 0 9
-28.0383 30.0104 1.6195 0.3153 0 9
-28.8709 29.6817 1.6327 0.3127 0 9
-29.5650 29.1967 1.6384 0.5052 0 9
-27.9574 26.5199 1.5195 0.0477 0 9
-30.0664 27.3930 1.6038 0.2454 0 9
-31.5549 27.6085 1.6533 0.3057 0 9
-35.0904 29.4771 1.8071 0.3772 0 9
-3.6971 2.9810 0.1873 0.9128 0 5
-29.7174 22.9901 1.4815 0.2112 0 9
-28.4526 21.1108 1.3970 0.0634 0 9
-30.2747 21.5323 1.4649 0.4542 0 9
-31.4175 21.4068 1.4990 0.1148 0 9
-23.6281 14.0919 1.0848 0.0357 0 9
-24.7509 14.0946 1.1231 0.1435 0 9
-24.4730 13.2918 1.0981 0.2102 0 9
-24.6294 12.7420 1.0934 0.1344 0 9
-24.7681 12.1887 1.0885 0.1426 0 9
-24.7475 11.5663 1.0771 0.1441 0 9
-28.0298 12.4197 1.2089 0.2468 0 9
-27.4793 11.5203 1.1749 0.0910 0 9
-28.0427 11.0988 1.1892 0.2508 0 9
-44.5690 16.6108 1.8755 0.1313 0 9
-44.7517 15.6612 1.8695 0.1317 0 9
-27.2655 8.9305 1.1313 0.0819 0 9
-31.0036 -1.6553 0.5245 0.3650 0 9
-30.0274 -2.8178 0.5095 0.1667 0 9
-30.7449 -3.5103 0.5227 0.1470 0 9
-30.9060 -4.1599 0.5268 0.1580 0 9
-30.9756 -4.8054 0.5295 0.3958 0 9
-30.3209 -5.3304 0.5200 0.1741 0 9
-27.0096 -5.3104 0.4650 0.5800 0 9
-30.7278 -6.6860 0.5312 0.1660 0 9
-41.2599 -9.8508 0.7165 0.3282 0 9
-41.1530 -10.7045 0.7183 0.1256 0 9
-45.2588 -12.7496 0.7943 0.0942 0 9
-29.2229 -10.8344 0.5265 0.8951 0 9
-31.7114 -13.2309 0.5804 0.0490 0 9
-30.8286 -13.5968 0.5692 0.4581 0 9
-30.2123 -14.0574 0.5629 0.3944 0 9
-29.9460 -14.6733 0.5633 0.2874 0 9
-30.1128 -15.5137 0.5722 0.3722 0 9
-21.8353 -11.8107 0.4193 0.9427 0 9
-21.7591 -12.3415 0.4226 0.6195 0 9
-36.3670 -21.6052 0.7145 0.1583 0 9
-29.8654 -18.5654 0.5940 0.0408 0 9
-28.4112 -18.4638 0.5723 0.0899 0 9
-28.4341 -19.3031 0.5805 0.2155 0 9
-28.1099 -19.9204 0.5819 0.3071 0 9
-26.3414 -19.4747 0.5533 0.0983 0 9
-25.9388 -19.9962 0.5532 0.0984 0 9
-25.5379 -20.5190 0.5533 0.0983 0 9
-31.8863 -26.6928 0.7024 0.9517 0 9
-23.6955 -21.5145 0.5406 0.1471 0 9
-31.2568 -30.7619 0.7408 0.4553 0 9
-29.7819 -30.5136 0.7202 0.1415 0 9
-19.2784 -20.5639 0.4761 0.2474 0 9
-32.3864 -35.9691 0.8176 0.3807 0 9
-30.5108 -35.2881 0.7880 0.1035 0 9
-18.5628 -22.3631 0.4909 0.9526 0 9
-23.5674 -29.5832 0.6389 0.2903 0 9
-22.3651 -29.2629 0.6221 0.2982 0 9
-21.2241 -28.9593 0.6065 0.3059 0 9
-21.5576 -30.6901 0.6335 0.8417 0 9
-23.6313 -35.1236 0.7151 0.3264 0 9
-22.4032 -34.7892 0.6990 0.2678 0 9
-21.6533 -35.1584 0.6975 0.5041 0 9
-20.9793 -35.6505 0.6988 0.3735 0 9
-20.2555 -36.0609 0.6987 0.1797 0 9
-19.3932 -36.2125 0.6939 0.1810 0 9
-20.9157 -41.0165 0.7777 0.9848 0 9
5.2730 -34.4341 0.5884 0.6227 0 9
5.9300 -34.1226 0.5850 0.7376 0 9
6.6328 -34.0877 0.5866 0.9198 0 9
7.3120 -33.9242 0.5862 0.7734 0 9
8.0017 -33.8080 0.5869 0.9953 0 2
8.6982 -33.7106 0.5881 0.9933 0 2
9.4391 -33.7600 0.5921 0.4813 0 9
10.1015 -33.5146 0.5913 0.9879 0 2
3.6309 -11.2247 0.1993 0.4671 0 9
3.8631 -11.1702 0.1996 0.9457 0 9
4.0596 -11.0159 0.1983 0.8056 0 9
4.3031 -10.9902 0.1993 0.9039 0 9
4.4954 -10.8343 0.1981 0.6181 0 9
4.7448 -10.8155 0.1995 0.5776 0 9
4.9926 -10.7853 0.2007 0.3794 0 9
5.2652 -10.7991 0.2029 0.9575 0 9
5.5342 -10.7941 0.2049 0.2664 0 9
5.7494 -10.6792 0.2048 0.5829 0 9
5.9839 -10.5985 0.2056 0.6992 0 9
6.3016 -10.6548 0.2091 0.8542 0 9
6.5679 -10.6120 0.2108 0.9558 0 9
6.6346 -10.2528 0.2063 0.9045 0 2
6.9742 -10.3167 0.2104 0.4212 0 2
7.3680 -10.4404 0.2158 0.5294 0 20
7.6264 -10.3577 0.2173 0.3791 0 20
9.8787 -12.8665 0.2740 0.2069 0 8
9.9400 -12.4209 0.2687 0.1954 0 8
9.9841 -11.9742 0.2634 0.1975 0 8
10.0251 -11.5432 0.2583 0.2169 0 8
10.0879 -11.1543 0.2541 0.2205 0 8
10.1526 -10.7818 0.2502 0.2296 0 8
10.2198 -10.4249 0.2466 0.2329 0 8
10.2827 -10.0754 0.2432 0.2333 0 8
10.3432 -9.7348 0.2399 0.2366 0 8
10.3315 -9.3391 0.2353 0.1938 0 8
10.3163 -8.9550 0.2308 0.1975 0 8
10.3019 -8.5854 0.2265 0.2012 0 8
10.2885 -8.2292 0.2225 0.2048 0 8
10.2757 -7.8855 0.2188 0.2083 0 8
10.2638 -7.5532 0.2153 0.2118 0 8
10.2525 -7.2316 0.2119 0.2151 0 8
10.2418 -6.9199 0.2088 0.2183 0 8
10.2318 -6.6174 0.2058 0.2215 0 8
10.2224 -6.3234 0.2030 0.2245 0 8
10.2135 -6.0373 0.2004 0.2275 0 8
10.2212 -5.7676 0.1983 0.6418 0 8
10.5873 -5.6966 0.2031 0.2330 0 7
10.5795 -5.4209 0.2008 0.2357 0 7
10.5723 -5.1514 0.1987 0.2382 0 7
10.5654 -4.8877 0.1966 0.2407 0 7
10.5590 -4.6292 0.1947 0.2430 0 7
10.5529 -4.3757 0.1930 0.2453 0 7
10.5474 -4.1268 0.1913 0.2474 0 7
10.5421 -3.8821 0.1898 0.2494 0 7
10.5372 -3.6414 0.1883 0.2513 0 7
10.5327 -3.4043 0.1870 0.2531 0 7
10.5285 -3.1705 0.1857 0.2548 0 7
10.5246 -2.9398 0.1846 0.2564 0 7
10.5210 -2.7119 0.1835 0.2579 0 7
10.5177 -2.4866 0.1826 0.2592 0 7
10.5148 -2.2636 0.1817 0.2605 0 7
10.5121 -2.0427 0.1809 0.2616 0 7
10.5096 -1.8237 0.1802 0.2627 0 7
10.5075 -1.6064 0.1796 0.2636 0 7
10.5057 -1.3905 0.1790 0.2644 0 7
10.5041 -1.1759 0.1786 0.2651 0 7
10.5028 -0.9623 0.1782 0.2657 0 7
10.5017 -0.7495 0.1779 0.2661 0 7
10.5010 -0.5375 0.1776 0.2665 0 7
5.5737 -0.1730 0.0942 0.9763 184 4
5.5616 -0.0607 0.0940 0.5173 184 4
5.5460 0.0510 0.0937 0.6078 184 4
5.5617 0.1631 0.0940 0.9359 184 4
10.5009 0.5195 0.1776 0.2665 0 7
10.5016 0.7315 0.1778 0.2662 0 7
10.5027 0.9441 0.1781 0.2657 0 7
10.5039 1.1576 0.1785 0.2651 0 7
10.5055 1.3722 0.1790 0.2645 0 7
10.5074 1.5880 0.1795 0.2637 0 7
10.5095 1.8052 0.1801 0.2628 0 7
10.5118 2.0240 0.1808 0.2617 0 7
10.5145 2.2448 0.1816 0.2606 0 7
10.1305 2.3768 0.1758 0.2594 0 8
10.1337 2.5936 0.1767 0.2580 0 8
10.1371 2.8129 0.1777 0.2565 0 8
9.9676 2.9830 0.1758 0.1553 0 19
10.1098 3.2485 0.1794 0.2533 0 19
10.1142 3.4758 0.1807 0.2515 0 19
9.8089 3.5931 0.1765 0.2496 0 19
10.1587 3.9547 0.1841 0.2476 0 8
10.1640 4.1941 0.1857 0.2454 0 8
10.1697 4.4379 0.1874 0.2432 0 8
10.1759 4.6863 0.1892 0.2409 0 8
10.1824 4.9399 0.1912 0.2385 0 8
10.1893 5.1990 0.1932 0.2359 0 8
10.1966 5.4639 0.1954 0.2333 0 8
10.2044 5.7352 0.1977 0.2306 0 8
10.2128 6.0133 0.2002 0.2277 0 8
10.2216 6.2987 0.2028 0.2248 0 8
10.3291 6.6553 0.2075 0.2378 0 0
10.3280 6.9524 0.2103 0.2203 0 0
10.3342 7.2628 0.2133 0.2171 0 0
8.3293 6.1078 0.1745 0.8547 0 11
7.9551 6.0831 0.1692 0.8437 0 2
7.5482 6.0163 0.1630 0.5120 0 2
7.1851 5.9671 0.1578 0.5292 0 2
6.8446 5.9210 0.1529 0.5461 0 2
6.5246 5.8776 0.1483 0.5628 0 2
8.1007 7.5982 0.1876 0.7948 0 11
8.0283 7.8396 0.1896 0.7837 0 11
7.9854 8.1179 0.1924 0.7723 0 11
7.9718 8.4370 0.1961 0.7606 0 11
7.9261 8.7340 0.1992 0.7485 0 11
7.8487 9.0062 0.2018 0.7361 0 11
7.8000 9.3224 0.2053 0.7235 0 11
7.7792 9.6870 0.2099 0.7106 0 11
7.7267 10.0282 0.2138 0.6973 0 11
7.6427 10.3429 0.2172 0.6838 0 11
7.6151 10.7514 0.2225 0.6701 0 11
7.5557 11.1359 0.2273 0.6560 0 11
7.4651 11.4932 0.2315 0.6417 0 11
7.4288 11.9571 0.2378 0.6271 0 11
7.3608 12.3971 0.2435 0.6123 0 11
7.2615 12.8099 0.2487 0.5972 0 11
7.2141 13.3450 0.2562 0.5819 0 11
7.1348 13.8575 0.2633 0.5664 0 11
7.0510 14.3990 0.2708 0.5506 0 11
6.9621 14.9726 0.2789 0.5346 0 11
6.8414 15.5222 0.2865 0.5184 0 11
6.7671 16.2305 0.2971 0.5020 0 11
6.6596 16.9233 0.3072 0.4854 0 11
6.5353 17.6403 0.3177 0.8796 0 11
3.8085 10.9515 0.1959 0.2292 0 19
3.7973 11.6707 0.2073 0.0560 0 19
6.1191 20.1772 0.3562 0.4171 0 11
3.3553 11.9220 0.2092 0.3018 0 19
1.8645 7.1753 0.1252 0.9585 0 9
1.7296 7.2522 0.1259 0.9531 0 9
1.5930 7.3300 0.1267 0.9473 0 9
1.4546 7.4085 0.1275 0.9664 0 9
4.2375 31.5405 0.5376 0.2976 0 20
3.6811 32.3117 0.5493 0.7968 0 20
3.0578 32.6707 0.5543 0.9664 0 20
2.4104 32.8664 0.5567 0.9359 0 20
1.7367 32.6768 0.5528 0.9425 0 20
-29.7762 35.9972 0.7891 0.4601 0 9
-29.0825 33.7528 0.7526 0.3457 0 9
-30.2731 33.7378 0.7657 0.2497 0 9
-33.1165 35.4457 0.8194 0.4602 0 9
-29.5377 30.3672 0.7156 0.3019 0 9
-29.4914 29.1241 0.7001 0.0365 0 9
-30.0409 28.4962 0.6994 0.2369 0 9
-30.0725 27.3986 0.6872 0.1830 0 9
-31.2815 27.3692 0.7021 0.4865 0 9
-28.9677 24.3338 0.6390 0.2003 0 9
-3.6839 2.9703 0.0799 0.9167 0 5
-29.4212 22.7610 0.6283 0.1907 0 9
-34.0409 25.2573 0.7160 0.1555 0 9
-40.6077 28.8814 0.8417 0.3710 0 9
-30.7956 20.9831 0.6294 0.0625 0 9
-31.5775 19.7044 0.6287 0.2498 0 9
-31.3873 18.7194 0.6173 0.2213 0 9
-32.1041 18.2817 0.6240 0.4132 0 9
-24.2885 13.1915 0.4669 0.0710 0 9
-24.2130 12.5266 0.4605 0.0720 0 9
-24.1418 11.8805 0.4545 0.0729 0 9
-24.0747 11.2518 0.4489 0.0738 0 9
-23.9912 10.6302 0.4433 0.1188 0 9
-45.1597 18.9326 0.8272 0.0750 0 9
-45.3016 17.9296 0.8230 0.3209 0 9
-27.3563 10.1957 0.4931 0.0929 0 9
-45.7664 16.0163 0.8191 0.4028 0 9
-40.7314 13.3409 0.7239 0.3214 0 9
-28.5632 -1.5250 -0.1610 0.2408 0 9
-32.6190 -2.4003 -0.1842 0.2232 0 9
-31.2924 -2.9365 -0.1770 0.2322 0 9
-31.0661 -3.5469 -0.1761 0.1995 0 9
-31.5535 -4.2471 -0.1793 0.1960 0 9
-31.9338 -4.9540 -0.1820 0.2414 0 9
-31.8667 -5.6022 -0.1822 0.2411 0 9
-26.7835 -5.2660 -0.1537 0.9508 0 9
-41.6945 -9.0722 -0.2403 0.3693 0 9
-30.8435 -7.3638 -0.1786 0.0240 0 9
-32.0927 -8.3478 -0.1867 0.0230 0 9
-44.3130 -12.4832 -0.2592 0.3486 0 9
-25.8555 -7.8482 -0.1521 0.1520 0 9
-26.2521 -8.5489 -0.1554 0.1488 0 9
-26.6661 -9.2809 -0.1590 0.1455 0 9
-26.6907 -9.8957 -0.1603 0.2737 0 9
-44.9159 -17.6882 -0.2718 0.2770 0 9
-31.8116 -13.2727 -0.1941 0.3554 0 9
-14.4876 -6.3897 -0.0892 0.7496 0 5
-29.7883 -13.8602 -0.1850 0.4253 0 9
-29.5379 -14.4734 -0.1852 0.4248 0 9
-29.4078 -15.1505 -0.1863 0.3999 0 9
-21.7193 -11.7480 -0.1390 0.9479 0 9
-21.5421 -12.2185 -0.1394 0.6259 0 9
-28.7513 -17.0809 -0.1883 0.1522 0 9
-28.7111 -17.8478 -0.1903 0.2893 0 9
-27.5811 -17.9243 -0.1852 0.2035 0 9
-26.2929 -17.8494 -0.1789 0.2107 0 9
-27.6509 -19.5951 -0.1909 0.2865 0 9
-26.6869 -19.7300 -0.1869 0.8429 0 9
-26.6681 -20.5584 -0.1896 0.1958 0 9
-26.6355 -21.4010 -0.1924 0.5101 0 9
-26.7479 -22.3912 -0.1964 0.2374 0 9
-23.9977 -20.9241 -0.1793 0.0060 0 9
-32.2431 -30.4806 -0.2498 0.0830 0 9
-30.8384 -30.3502 -0.2436 0.2591 0 9
-30.7202 -31.4749 -0.2476 0.5196 0 9
-30.0861 -32.0919 -0.2477 0.5195 0 9
-31.3971 -34.8703 -0.2641 0.5300 0 9
-25.7256 -29.7537 -0.2215 0.0467 0 9
-18.5557 -22.3546 -0.1636 0.2782 0 9
-22.4282 -28.1532 -0.2027 0.1932 0 9
-23.7432 -35.2899 -0.2395 0.3461 0 9
-22.4604 -34.8779 -0.2336 0.2261 0 9
-22.0567 -35.8136 -0.2368 0.3589 0 9
-21.2222 -36.0634 -0.2356 0.3357 0 9
-20.0198 -35.6409 -0.2302 0.1671 0 9
-20.8675 -40.9221 -0.2587 0.5568 0 9
2.4250 -26.3963 -0.1492 0.7166 0 9
2.6160 -23.3164 -0.1321 0.5942 0 9
4.2718 -32.2137 -0.1830 0.7967 0 9
5.2400 -34.2187 -0.1949 0.4878 0 9
5.9311 -34.1293 -0.1950 0.9984 0 2
6.6208 -34.0260 -0.1952 0.7912 0 9
2.5217 -11.7000 -0.0674 0.6405 0 9
2.7176 -11.4826 -0.0665 0.8572 0 9
2.9126 -11.2882 -0.0657 0.8369 0 9
3.1145 -11.1398 -0.0652 0.8927 0 9
3.3471 -11.1055 -0.0653 0.5519 0 9
3.5719 -11.0421 -0.0654 0.5692 0 9
3.8231 -11.0545 -0.0659 0.9636 0 9
4.0345 -10.9477 -0.0657 0.6939 0 9
4.2973 -10.9755 -0.0664 0.9128 0 9
4.5279 -10.9124 -0.0665 0.9129 0 9
4.7484 -10.8238 -0.0666 0.6833 0 9
5.0060 -10.8143 -0.0671 0.6378 0 9
5.2546 -10.7773 -0.0675 0.8659 0 9
5.5225 -10.7714 -0.0682 0.8230 0 9
5.7873 -10.7496 -0.0688 0.8258 0 9
6.0246 -10.6705 -0.0690 0.9342 0 9
6.1121 -10.3342 -0.0676 0.9201 0 2
6.3742 -10.2989 -0.0682 0.9121 0 2
6.6341 -10.2520 -0.0687 0.9037 0 2
6.9131 -10.2262 -0.0695 0.8950 0 2
7.3556 -10.4227 -0.0718 0.9701 0 20
7.6068 -10.3313 -0.0722 0.3729 0 20
8.8938 -11.5838 -0.0822 0.2269 0 8
8.9718 -11.2111 -0.0808 0.2309 0 8
9.0517 -10.8560 -0.0796 0.2406 0 8
9.1312 -10.5140 -0.0784 0.2442 0 8
9.2055 -10.1786 -0.0773 0.2449 0 8
6.5195 -6.9236 -0.0535 0.5407 21 5
9.2815 -9.4677 -0.0746 0.2036 0 8
9.2864 -9.0992 -0.0732 0.2076 0 8
9.2911 -8.7445 -0.0718 0.2115 0 8
9.2954 -8.4025 -0.0705 0.2154 0 8
9.2995 -8.0724 -0.0693 0.2192 0 8
9.3034 -7.7533 -0.0682 0.2229 0 8
9.3071 -7.4443 -0.0671 0.2265 0 8
9.3106 -7.1448 -0.0661 0.2300 0 8
9.3138 -6.8542 -0.0651 0.2334 0 8
9.3170 -6.5717 -0.0642 0.2367 0 8
9.3199 -6.2970 -0.0633 0.2400 0 8
9.3226 -6.0294 -0.0625 0.2431 0 8
9.4841 -5.8667 -0.0628 0.6755 0 8
9.6846 -5.7247 -0.0633 0.2491 0 7
9.6870 -5.4662 -0.0626 0.2519 0 7
9.6893 -5.2134 -0.0619 0.2547 0 7
9.6915 -4.9659 -0.0613 0.2573 0 7
9.6935 -4.7233 -0.0607 0.2599 0 7
9.6954 -4.4852 -0.0601 0.2623 0 7
9.6972 -4.2514 -0.0596 0.2647 0 7
9.6989 -4.0216 -0.0591 0.2669 0 7
9.7004 -3.7954 -0.0586 0.2690 0 7
9.7020 -3.5727 -0.0582 0.2710 0 7
9.7034 -3.3532 -0.0578 0.2729 0 7
9.7046 -3.1366 -0.0574 0.2748 0 7
9.7058 -2.9228 -0.0571 0.2764 0 7
9.7069 -2.7114 -0.0567 0.2780 0 7
9.7080 -2.5023 -0.0564 0.2795 0 7
9.7089 -2.2954 -0.0562 0.2809 0 7
9.7097 -2.0903 -0.0559 0.2821 0 7
9.7104 -1.8870 -0.0557 0.2833 0 7
9.7112 -1.6852 -0.0555 0.2843 0 7
9.7118 -1.4847 -0.0553 0.2852 0 7
9.7123 -1.2855 -0.0552 0.2860 0 7
9.7127 -1.0873 -0.0550 0.2867 0 7
9.7131 -0.8899 -0.0549 0.2873 0 7
9.7134 -0.6933 -0.0548 0.2878 0 7
9.7136 -0.4972 -0.0548 0.2881 0 7
5.6782 -0.1762 -0.0320 0.6247 184 4
5.4777 -0.0598 -0.0308 0.8197 184 4
5.4676 0.0503 -0.0308 0.8680 184 4
5.5653 0.1632 -0.0313 0.3966 184 4
9.7137 0.4805 -0.0547 0.2881 0 7
9.7134 0.6766 -0.0548 0.2878 0 7
9.7132 0.8732 -0.0549 0.2873 0 7
9.7128 1.0704 -0.0550 0.2868 0 7
9.7123 1.2686 -0.0551 0.2861 0 7
9.7118 1.4677 -0.0553 0.2853 0 7
9.7112 1.6681 -0.0555 0.2844 0 7
9.7105 1.8697 -0.0557 0.2834 0 7
9.7098 2.0729 -0.0559 0.2822 0 7
9.7089 2.2779 -0.0562 0.2810 0 7
9.3509 2.3933 -0.0543 0.2796 0 8
9.3499 2.5944 -0.0546 0.2782 0 8
9.3488 2.7978 -0.0549 0.2766 0 8
9.0301 2.9016 -0.0534 0.2749 0 19
9.3142 3.2009 -0.0554 0.2731 0 19
9.3129 3.4114 -0.0558 0.2712 0 19
9.0263 3.5139 -0.0545 0.2692 0 19
9.3420 3.8549 -0.0569 0.2671 0 8
9.3404 4.0759 -0.0574 0.2649 0 8
9.3386 4.3008 -0.0579 0.2625 0 8
9.3367 4.5297 -0.0584 0.2601 0 8
9.3347 4.7630 -0.0590 0.2576 0 8
9.3327 5.0010 -0.0596 0.2549 0 8
9.3304 5.2440 -0.0602 0.2522 0 8
9.3280 5.4924 -0.0609 0.2493 0 8
9.3255 5.7466 -0.0617 0.2464 0 8
9.3229 6.0070 -0.0624 0.2434 0 8
9.3201 6.2740 -0.0632 0.2402 0 8
9.3991 6.6057 -0.0647 0.2388 0 0
8.3912 6.1532 -0.0586 0.8485 0 11
7.9224 6.0580 -0.0562 0.4956 0 2
7.5351 6.0059 -0.0542 0.5130 0 2
8.2508 6.8523 -0.0604 0.8201 0 11
8.2446 7.1320 -0.0614 0.8099 0 11
8.2056 7.3920 -0.0622 0.7994 0 11
8.1655 7.6590 -0.0630 0.7886 0 11
8.0934 7.9032 -0.0637 0.7775 0 11
8.0512 8.1848 -0.0646 0.7661 0 11
8.0385 8.5075 -0.0659 0.7543 0 11
7.9935 8.8082 -0.0670 0.7423 0 11
7.9166 9.0841 -0.0678 0.7299 0 11
7.8989 9.4405 -0.0693 0.7173 0 11
7.8490 9.7738 -0.0706 0.7043 0 11
7.7972 10.1197 -0.0719 0.6911 0 11
7.7138 10.4392 -0.0731 0.6776 0 11
7.6874 10.8536 -0.0749 0.6638 0 11
7.6291 11.2440 -0.0765 0.6498 0 11
7.5391 11.6073 -0.0779 0.6355 0 11
7.5043 12.0786 -0.0801 0.6209 0 11
7.4375 12.5262 -0.0820 0.6061 0 11
7.3390 12.9466 -0.0838 0.5910 0 11
7.2932 13.4913 -0.0863 0.5757 0 11
7.1876 13.9600 -0.0884 0.5602 0 11
7.1327 14.5659 -0.0913 0.5444 0 11
7.0452 15.1514 -0.0941 0.5284 0 11
6.9523 15.7738 -0.0970 0.5122 0 11
6.8270 16.3742 -0.0999 0.4958 0 11
6.7473 17.1462 -0.1037 0.4792 0 11
4.3591 11.7663 -0.0707 0.8478 0 19
3.7229 10.7053 -0.0638 0.7078 0 19
3.6027 11.0725 -0.0656 0.7034 0 19
3.4139 11.2570 -0.0662 0.6963 0 19
3.2211 11.4453 -0.0669 0.6889 0 19
1.8705 7.1984 -0.0419 0.9555 0 9
1.7352 7.2756 -0.0421 0.9501 0 9
1.5982 7.3538 -0.0424 0.9443 0 9
1.4587 7.4288 -0.0426 0.9639 0 9
2.8067 15.9886 -0.0914 0.0402 0 19
2.4710 15.9539 -0.0909 0.4474 0 19
4.2924 31.9495 -0.1815 0.8039 0 20
2.3477 20.6073 -0.1168 0.1121 0 20
2.0481 21.8829 -0.1237 0.0966 0 20
2.4058 32.8036 -0.1852 0.9378 0 20
1.7333 32.6148 -0.1839 0.9444 0 20
1.0590 32.0978 -0.1808 0.7497 0 20
-17.8520 33.4718 -0.2136 0.4929 0 5
-27.7330 36.4154 -0.2577 0.0582 0 9
-29.2318 36.8224 -0.2647 0.4771 0 9
-29.2312 35.3382 -0.2582 0.1213 0 9
-30.3980 35.2792 -0.2622 0.4380 0 9
-28.4550 31.7117 -0.2399 0.2981 0 9
-28.2509 30.2379 -0.2330 0.4596 0 9
-28.5662 29.3684 -0.2307 0.1436 0 9
-28.5922 28.2361 -0.2262 0.1464 0 9
-29.6778 28.1518 -0.2303 0.4465 0 9
-30.5336 27.8187 -0.2326 0.2375 0 9
-31.7184 27.7515 -0.2373 0.5045 0 9
-32.8612 27.6046 -0.2416 0.2070 0 9
-3.6768 2.9645 -0.0266 0.4199 0 5
-28.9150 22.3693 -0.2058 0.2589 0 9
-29.6369 21.9895 -0.2078 0.2956 0 9
-39.3345 27.9758 -0.2718 0.1543 0 9
-24.0586 15.6936 -0.1617 0.0370 0 9
-31.0341 19.3653 -0.2060 0.4078 0 9
-31.6111 18.8528 -0.2073 0.4053 0 9
-32.0162 18.2316 -0.2075 0.5412 0 9
-32.2151 17.4964 -0.2064 0.5434 0 9
-32.5961 16.8634 -0.2067 0.5035 0 9
-34.0139 16.7385 -0.2135 0.3468 0 9
-27.6132 12.9056 -0.1716 0.8249 0 9
-24.3796 10.8024 -0.1501 0.2238 0 9
-24.9762 10.4709 -0.1525 0.2203 0 9
-25.5915 10.1287 -0.1550 0.2168 0 9
-26.2272 9.7749 -0.1576 0.2132 0 9
-43.8428 15.3431 -0.2615 0.1049 0 9
-40.3593 13.2191 -0.2392 0.4078 0 9
-29.3523 -1.5671 -0.8277 0.3979 0 9
-29.4886 -2.1699 -0.8326 0.3956 0 9
-29.1620 -2.7365 -0.8247 0.2023 0 9
-29.3778 -3.3541 -0.8326 0.2805 0 9
-28.9344 -3.8945 -0.8221 0.2841 0 9
-28.3780 -4.4023 -0.8086 0.1983 0 9
-27.3858 -4.8143 -0.7830 0.2194 0 9
-26.6089 -5.2316 -0.7636 0.9567 0 9
-31.8487 -6.9298 -0.9178 0.2102 0 9
-39.5791 -9.4495 -1.1458 0.1935 0 9
-40.4707 -10.5270 -1.1775 0.4104 0 9
-43.8629 -12.3564 -1.2832 0.4951 0 9
-44.8591 -13.6166 -1.3200 0.3193 0 9
-31.5970 -10.9971 -0.9421 0.2626 0 9
-28.9025 -10.7157 -0.8680 0.9048 0 9
-28.7621 -11.3267 -0.8704 0.7391 0 9
-31.5412 -13.1599 -0.9623 0.3136 0 9
-14.3884 -6.3459 -0.4428 0.9669 0 5
-29.8431 -13.8857 -0.9268 0.4419 0 9
-29.5564 -14.4824 -0.9268 0.2203 0 9
-29.4584 -15.1766 -0.9331 0.5090 0 9
-21.7579 -11.7688 -0.6965 0.3039 0 9
-21.3294 -12.0978 -0.6905 0.6319 0 9
-30.1750 -17.9266 -0.9883 0.2640 0 9
-41.3953 -25.7327 -1.3725 0.2326 0 9
-33.2791 -21.6273 -1.1176 0.1053 0 9
-28.6384 -19.4416 -0.9747 0.4209 0 9
-28.5181 -20.2097 -0.9842 0.3073 0 9
-26.4816 -19.5783 -0.9273 0.8491 0 9
-26.7077 -20.5889 -0.9496 0.2597 0 9
-26.6872 -21.4425 -0.9640 0.2237 0 9
-26.8112 -22.4442 -0.9846 0.1545 0 9
-31.5821 -29.8558 -1.2238 0.2437 0 9
-25.9307 -25.5204 -1.0245 0.1486 0 9
-22.8825 -23.4449 -0.9225 0.7017 0 9
-24.6350 -26.2775 -1.0142 0.1400 0 9
-29.3981 -32.6500 -1.2371 0.1577 0 9
-30.7468 -35.5612 -1.3237 0.0670 0 9
-30.0392 -37.7070 -1.3575 0.1707 0 9
-24.3428 -33.2144 -1.1595 0.1448 0 9
-22.5873 -32.1560 -1.1065 0.0288 0 9
-20.7927 -30.9045 -1.0488 0.8612 0 9
-22.4332 -36.4247 -1.2046 0.5560 0 9
-21.2213 -39.6256 -1.2657 0.9230 0 9
-1.8037 -25.9877 -0.7335 0.8215 0 5
1.1399 -15.9154 -0.4493 0.6681 0 9
1.4936 -16.2580 -0.4597 0.6034 0 9
1.6933 -15.0928 -0.4276 0.0959 0 9
3.2155 -24.2479 -0.6887 0.9034 0 2
1.8057 -11.7925 -0.3359 0.6515 0 9
2.0489 -11.7908 -0.3370 0.3211 0 9
2.2062 -11.3386 -0.3253 0.8924 0 9
2.4296 -11.2728 -0.3247 0.8929 0 9
2.6615 -11.2454 -0.3254 0.9263 0 9
2.8726 -11.1332 -0.3238 0.8172 0 9
3.1196 -11.1578 -0.3262 0.6643 0 9
3.3501 -11.1151 -0.3269 0.9310 0 9
3.5746 -11.0505 -0.3271 0.8238 0 9
3.7863 -10.9482 -0.3262 0.5928 0 9
4.0479 -10.9841 -0.3296 0.3920 0 9
4.2966 -10.9735 -0.3319 0.9589 0 9
4.5327 -10.9243 -0.3330 0.9080 0 9
4.7025 -10.7192 -0.3296 0.3743 0 9
4.9973 -10.7956 -0.3350 0.8081 0 9
5.1096 -10.4797 -0.3283 0.9468 0 2
5.3412 -10.4174 -0.3296 0.9406 0 2
5.6129 -10.4255 -0.3334 0.3196 0 2
5.8538 -10.3679 -0.3353 0.9265 0 2
6.1181 -10.3442 -0.3384 0.9189 0 2
6.6039 -10.6701 -0.3534 0.9414 0 9
6.6477 -10.2730 -0.3445 0.9025 0 2
6.9318 -10.2540 -0.3485 0.4085 0 2
7.1490 -10.1301 -0.3491 0.8846 0 2
7.6218 -10.3516 -0.3620 0.9623 0 20
8.1341 -10.5943 -0.3761 0.2515 0 8
8.2203 -10.2720 -0.3705 0.2555 0 8
8.2982 -9.9523 -0.3649 0.2082 0 8
8.3234 -9.5839 -0.3574 0.2125 0 8
8.3472 -9.2296 -0.3504 0.2168 0 8
6.5298 -6.9345 -0.2682 0.9753 21 5
8.3910 -8.5593 -0.3375 0.2251 0 8
8.4110 -8.2415 -0.3316 0.2291 0 8
8.4300 -7.9341 -0.3260 0.2331 0 8
8.4480 -7.6365 -0.3207 0.2369 0 8
8.4650 -7.3480 -0.3156 0.2407 0 8
8.4812 -7.0680 -0.3109 0.2444 0 8
8.4965 -6.7959 -0.3063 0.2480 0 8
8.5109 -6.5312 -0.3021 0.2515 0 8
8.5247 -6.2734 -0.2980 0.2549 0 8
8.5377 -6.0221 -0.2942 0.2582 0 8
8.8250 -5.9626 -0.2999 0.6728 0 8
8.8892 -5.7491 -0.2981 0.2646 0 7
8.9007 -5.5058 -0.2947 0.2676 0 7
8.9115 -5.2677 -0.2915 0.2706 0 7
8.9219 -5.0345 -0.2884 0.2734 0 7
8.9316 -4.8057 -0.2856 0.2762 0 7
8.9408 -4.5812 -0.2829 0.2788 0 7
8.9494 -4.3607 -0.2803 0.2814 0 7
8.9576 -4.1439 -0.2779 0.2838 0 7
8.9652 -3.9305 -0.2756 0.2861 0 7
8.9725 -3.7204 -0.2735 0.2884 0 7
8.9793 -3.5133 -0.2715 0.2905 0 7
8.9856 -3.3089 -0.2696 0.2925 0 7
8.9915 -3.1072 -0.2679 0.2944 0 7
8.9971 -2.9079 -0.2662 0.2962 0 7
9.0022 -2.7109 -0.2647 0.2979 0 7
9.0070 -2.5159 -0.2633 0.2995 0 7
9.0114 -2.3228 -0.2620 0.3010 0 7
9.0154 -2.1314 -0.2608 0.3024 0 7
9.0190 -1.9416 -0.2598 0.3036 0 7
9.0223 -1.7532 -0.2588 0.3048 0 7
9.0253 -1.5662 -0.2579 0.3058 0 7
9.0279 -1.3802 -0.2571 0.3067 0 7
9.0302 -1.1952 -0.2565 0.3075 0 7
9.0321 -1.0111 -0.2559 0.3082 0 7
9.0337 -0.8277 -0.2554 0.3088 0 7
9.0351 -0.6449 -0.2550 0.3092 0 7
9.0360 -0.4625 -0.2548 0.3096 0 7
6.1651 -0.1913 -0.1737 0.5241 184 4
5.4164 -0.0591 -0.1525 0.8542 184 4
5.4070 0.0497 -0.1523 0.9101 184 4
5.4993 0.1612 -0.1549 0.4189 184 4
9.0361 0.4470 -0.2547 0.3096 0 7
9.0352 0.6293 -0.2550 0.3093 0 7
9.0338 0.8121 -0.2554 0.3088 0 7
9.0322 0.9954 -0.2559 0.3083 0 7
9.0304 1.1795 -0.2564 0.3076 0 7
9.0281 1.3644 -0.2571 0.3068 0 7
9.0255 1.5503 -0.2579 0.3059 0 7
9.0226 1.7373 -0.2587 0.3049 0 7
9.0193 1.9255 -0.2597 0.3037 0 7
9.0157 2.1152 -0.2608 0.3025 0 7
8.6802 2.2216 -0.2523 0.3011 0 8
8.6760 2.4075 -0.2535 0.2997 0 8
8.6714 2.5951 -0.2549 0.2981 0 8
8.6665 2.7847 -0.2563 0.2964 0 8
8.3671 2.8754 -0.2491 0.2946 0 19
8.6257 3.1597 -0.2587 0.2927 0 19
8.6196 3.3555 -0.2604 0.2907 0 19
8.3494 3.4453 -0.2543 0.2886 0 19
8.6359 3.7685 -0.2653 0.2864 0 8
8.6285 3.9737 -0.2675 0.2840 0 8
8.6206 4.1823 -0.2698 0.2816 0 8
8.6123 4.3944 -0.2722 0.2791 0 8
8.6034 4.6102 -0.2748 0.2764 0 8
8.5941 4.8302 -0.2776 0.2737 0 8
8.5842 5.0544 -0.2805 0.2708 0 8
8.5738 5.2833 -0.2836 0.2679 0 8
8.5627 5.5172 -0.2868 0.2649 0 8
8.5511 5.7563 -0.2902 0.2617 0 8
8.5388 6.0010 -0.2939 0.2585 0 8
8.4541 6.1993 -0.2952 0.8419 0 11
7.9245 6.0596 -0.2809 0.8308 0 2
7.5221 5.9955 -0.2708 0.5137 0 2
7.1610 5.9471 -0.2621 0.5308 0 2
6.8225 5.9018 -0.2540 0.5477 0 2
8.2709 7.4508 -0.3135 0.7928 0 11
8.2314 7.7208 -0.3178 0.7820 0 11
8.1596 7.9679 -0.3211 0.7709 0 11
8.1492 8.2844 -0.3272 0.7595 0 11
8.1063 8.5793 -0.3324 0.7477 0 11
8.0620 8.8837 -0.3378 0.7357 0 11
7.9856 9.1633 -0.3422 0.7233 0 11
7.9689 9.5243 -0.3497 0.7107 0 11
7.9199 9.8622 -0.3562 0.6978 0 11
7.8691 10.2130 -0.3630 0.6845 0 11
7.7863 10.5373 -0.3689 0.6710 0 11
7.7613 10.9578 -0.3781 0.6573 0 11
7.7039 11.3543 -0.3864 0.6432 0 11
7.6148 11.7237 -0.3937 0.6289 0 11
7.5814 12.2027 -0.4045 0.6144 0 11
7.5157 12.6580 -0.4145 0.5995 0 11
7.4183 13.0864 -0.4236 0.5845 0 11
7.3740 13.6408 -0.4366 0.5692 0 11
7.2695 14.1190 -0.4471 0.5536 0 11
7.2163 14.7367 -0.4620 0.5379 0 11
7.1031 15.2759 -0.4744 0.5219 0 11
7.0390 15.9705 -0.4914 0.5057 0 11
6.9150 16.5853 -0.5060 0.4893 0 11
6.8374 17.3750 -0.5258 0.4727 0 11
6.7257 18.1543 -0.5451 0.4559 0 11
3.6501 10.4960 -0.3129 0.7216 0 19
3.5321 10.8556 -0.3214 0.7172 0 19
3.3464 11.0343 -0.3247 0.7101 0 19
2.0108 7.1448 -0.2090 0.9571 0 9
1.8766 7.2216 -0.2101 0.9521 0 9
1.7408 7.2992 -0.2113 0.9467 0 9
1.6035 7.3778 -0.2126 0.9409 0 9
2.9408 14.9768 -0.4298 0.6444 0 19
2.7177 15.4816 -0.4426 0.6369 0 19
2.4430 15.7735 -0.4495 0.7812 0 19
2.7033 20.1217 -0.5717 0.9644 0 20
2.5327 22.2313 -0.6300 0.9695 0 20
2.0750 22.1697 -0.6270 0.9742 0 20
2.4012 32.7410 -0.9244 0.9392 0 20
1.7248 32.4555 -0.9152 0.7405 0 20
1.0465 31.7183 -0.8936 0.2132 0 20
-3.3535 49.5425 -1.3982 0.9974 37 18
-26.7571 36.6398 -1.2775 0.0986 0 9
-26.4174 34.6877 -1.2277 0.1158 0 9
-29.9665 36.2272 -1.3238 0.2643 0 9
-29.2637 33.9628 -1.2624 0.2533 0 9
-30.5972 34.0990 -1.2900 0.5476 0 9
-27.7841 29.7381 -1.1460 0.1525 0 9
-28.4360 29.2345 -1.1484 0.3440 0 9
-29.2305 28.8665 -1.1568 0.2882 0 9
-29.9570 28.4166 -1.1627 0.2867 0 9
-28.3692 25.8467 -1.0806 0.1414 0 9
-30.6130 26.7843 -1.1454 0.1161 0 9
-3.5905 3.0161 -0.1320 0.8789 0 5
-31.4299 25.3418 -1.1368 0.1640 0 9
-30.2918 23.4345 -1.0784 0.9525 0 9
-33.6991 25.0037 -1.1815 0.1511 0 9
-37.6103 26.7495 -1.2996 0.1041 0 9
-30.9661 19.3229 -1.0278 0.0470 0 9
-30.2572 18.0454 -0.9920 0.0908 0 9
-30.0743 17.1258 -0.9746 0.0924 0 9
-40.6901 22.0995 -1.3038 0.4138 0 9
-32.3299 16.7257 -1.0250 0.3774 0 9
-39.7408 19.5570 -1.2472 0.1502 0 9
-27.3952 12.8038 -0.8515 0.8311 0 9
-42.6129 18.8813 -1.3124 0.4888 0 9
-44.1984 18.5296 -1.3495 0.4910 0 9
-44.1956 17.4918 -1.3384 0.4760 0 9
-43.3495 16.1562 -1.3027 0.1664 0 9
-42.1146 14.7383 -1.2564 0.2694 0 9
-41.3957 13.5585 -1.2266 0.2759 0 9
-31.5998 -1.6872 -1.6049 0.2228 0 9
-31.1057 -2.2890 -1.5818 0.2261 0 9
-30.6227 -2.8737 -1.5599 0.2293 0 9
-30.0005 -3.4253 -1.5314 0.2368 0 9
-31.6052 -4.2541 -1.6173 0.9435 0 9
-43.2850 -6.7151 -2.2214 0.2238 0 9
-38.0572 -6.6905 -1.9596 0.9663 0 9
-26.4362 -5.1977 -1.3664 0.9621 0 9
-31.7715 -6.9131 -1.6490 0.0945 0 9
-39.9814 -9.5456 -2.0846 0.4298 0 9
-39.6181 -10.3053 -2.0761 0.3429 0 9
-40.0310 -11.2769 -2.1092 0.4246 0 9
-47.3365 -14.3686 -2.5088 0.3588 0 9
-44.9880 -14.6501 -2.3995 0.1911 0 9
-45.4625 -15.8228 -2.4413 0.1878 0 9
-29.0767 -10.7803 -1.5727 0.1496 0 9
-28.5196 -11.2312 -1.5545 0.7448 0 9
-30.7950 -12.8485 -1.6922 0.3905 0 9
-28.6239 -12.6244 -1.5866 0.0217 0 9
-27.9260 -12.9937 -1.5621 0.1461 0 9
-27.7559 -13.6001 -1.5675 0.1456 0 9
-30.8270 -15.8816 -1.7586 0.2596 0 9
-27.0700 -14.6424 -1.5608 0.1758 0 9
-21.1537 -11.9981 -1.2333 0.9612 0 9
-32.0542 -19.0431 -1.8908 0.0704 0 9
-27.6761 -17.2045 -1.6527 0.0469 0 9
-26.6779 -17.3374 -1.6136 0.0349 0 9
-39.2810 -26.6666 -2.4078 0.8701 0 9
-26.3608 -19.4890 -1.6626 0.8456 0 9
-26.3773 -20.3342 -1.6891 0.3040 0 9
-25.9374 -20.8401 -1.6874 0.2961 0 9
-31.5724 -26.4298 -2.0881 0.6376 0 9
-35.2603 -32.0149 -2.4153 0.1504 0 9
-31.7183 -29.9845 -2.2136 0.4981 0 9
-29.6815 -29.2116 -2.1120 0.1249 0 9
-22.7195 -23.2777 -1.6496 0.9499 0 9
-29.3884 -31.3478 -2.1792 0.0991 0 9
-29.2630 -32.5000 -2.2179 0.0681 0 9
-28.6546 -33.1413 -2.2219 0.0962 0 9
-27.1897 -32.7559 -2.1589 0.0991 0 9
-17.8743 -22.4370 -1.4548 0.6741 0 9
-20.6514 -30.6945 -1.8762 0.8663 0 9
-21.1270 -39.4496 -2.2695 0.7772 0 9
-19.8973 -41.0385 -2.3130 0.9931 0 9
-18.8873 -43.3112 -2.3963 0.2239 0 0
-18.0618 -43.8021 -2.4028 0.2233 0 0
-17.2299 -44.2918 -2.4102 0.2226 0 0
-16.6166 -45.3975 -2.4517 0.3792 0 0
-15.9907 -46.5680 -2.4970 0.5468 0 0
-15.2481 -47.4947 -2.5297 0.3358 0 0
1.4680 -46.9260 -2.3810 0.0574 0 8
0.6361 -12.3668 -0.6280 0.6591 0 9
0.9023 -12.5982 -0.6405 0.7401 0 9
1.0699 -11.6469 -0.5932 0.6690 0 9
1.2823 -11.4308 -0.5834 0.8431 0 9
1.5093 -11.3826 -0.5823 0.6746 0 9
1.7244 -11.2613 -0.5778 0.3900 0 9
1.9541 -11.2446 -0.5788 0.6276 0 9
2.1917 -11.2641 -0.5820 0.6862 0 9
2.4067 -11.1663 -0.5793 0.6650 0 9
